# .PCD v0.7 - Point Cloud Data file format
VERSION 0.7
FIELDS x y z
SIZE 4 4 4
TYPE F F F
COUNT 1 1 1
WIDTH 2031
HEIGHT 1
VIEWPOINT 0 0 0 1 0 0 0
POINTS 2031
DATA ascii
2.79 2.47 1.83
2.79 2.47 1.85
2.79 2.47 1.87
2.79 2.47 1.89
2.79 2.47 1.91
2.79 2.47 1.9299999
2.79 2.47 1.99
2.79 2.47 2.3499999
2.79 2.47 2.3900001
2.79 2.47 2.4100001
2.79 2.47 2.45
2.79 2.47 2.47
2.79 2.47 2.49
2.79 2.47 2.51
2.79 2.47 2.53
2.79 2.47 2.55
2.79 2.47 2.5699999
2.79 2.47 2.5899999
2.79 2.47 2.6099999
2.79 2.47 2.6300001
2.79 2.47 2.6500001
2.79 2.47 2.6700001
2.79 2.49 1.53
2.79 2.49 1.55
2.79 2.49 1.5700001
2.79 2.49 1.59
2.79 2.49 1.61
2.79 2.49 1.63
2.79 2.49 1.65
2.79 2.49 1.67
2.79 2.49 1.6900001
2.79 2.49 1.71
2.79 2.49 1.73
2.79 2.49 1.75
2.79 2.49 1.77
2.79 2.49 1.79
2.79 2.49 1.8099999
2.79 2.49 1.83
2.79 2.49 1.85
2.79 2.49 1.87
2.79 2.49 1.89
2.79 2.49 2.5699999
2.79 2.49 2.6099999
2.79 2.49 2.6300001
2.79 2.49 2.6500001
2.79 2.49 2.6700001
2.79 2.49 2.6900001
2.79 2.51 1.53
2.79 2.51 1.55
2.79 2.51 1.5700001
2.79 2.51 1.59
2.79 2.51 1.61
2.79 2.51 1.63
2.79 2.51 1.65
2.79 2.51 1.71
2.79 2.51 1.73
2.79 2.51 1.75
2.79 2.51 1.77
2.79 2.51 1.79
2.79 2.51 1.8099999
2.79 2.51 1.83
2.79 2.51 1.85
2.79 2.51 1.87
2.79 2.51 2.6900001
2.79 2.53 1.53
2.79 2.53 1.55
2.79 2.53 1.5700001
2.79 2.53 1.59
2.79 2.53 1.61
2.79 2.53 1.63
2.79 2.53 1.65
2.79 2.53 1.73
2.79 2.53 1.75
2.79 2.53 1.77
2.79 2.53 1.79
2.79 2.53 1.8099999
2.79 2.53 1.83
2.79 2.53 2.71
2.79 2.55 1.53
2.79 2.55 1.55
2.79 2.55 1.5700001
2.79 2.55 1.59
2.79 2.55 1.61
2.79 2.55 1.63
2.79 2.55 1.65
2.79 2.55 1.73
2.79 2.55 1.75
2.79 2.55 1.77
2.79 2.55 1.79
2.79 2.55 1.8099999
2.79 2.55 1.83
2.79 2.55 2.71
2.79 2.5699999 1.53
2.79 2.5699999 1.55
2.79 2.5699999 1.5700001
2.79 2.5699999 1.59
2.79 2.5699999 1.61
2.79 2.5699999 1.63
2.79 2.5699999 1.65
2.79 2.5699999 1.75
2.79 2.5699999 1.77
2.79 2.5699999 1.79
2.79 2.5699999 1.8099999
2.79 2.5699999 2.73
2.79 2.5899999 1.53
2.79 2.5899999 1.55
2.79 2.5899999 1.5700001
2.79 2.5899999 1.59
2.79 2.5899999 1.61
2.79 2.5899999 1.63
2.79 2.5899999 1.65
2.79 2.5899999 1.75
2.79 2.5899999 1.77
2.79 2.5899999 1.79
2.79 2.5899999 1.8099999
2.79 2.5899999 2.73
2.79 2.6099999 1.53
2.79 2.6099999 1.55
2.79 2.6099999 1.5700001
2.79 2.6099999 1.59
2.79 2.6099999 1.61
2.79 2.6099999 1.63
2.79 2.6099999 1.65
2.79 2.6099999 1.75
2.79 2.6099999 1.77
2.79 2.6099999 1.79
2.79 2.6099999 2.75
2.79 2.6300001 1.53
2.79 2.6300001 1.55
2.79 2.6300001 1.5700001
2.79 2.6300001 1.59
2.79 2.6300001 1.61
2.79 2.6300001 1.63
2.79 2.6300001 1.75
2.79 2.6300001 1.77
2.79 2.6300001 1.79
2.79 2.6300001 2.75
2.79 2.6500001 1.53
2.79 2.6500001 1.55
2.79 2.6500001 1.5700001
2.79 2.6500001 1.59
2.79 2.6500001 1.61
2.79 2.6500001 1.63
2.79 2.6500001 1.75
2.79 2.6500001 1.77
2.79 2.6500001 2.77
2.79 2.6700001 1.53
2.79 2.6700001 1.55
2.79 2.6700001 1.5700001
2.79 2.6700001 1.59
2.79 2.6700001 1.61
2.79 2.6700001 1.63
2.79 2.6700001 1.75
2.79 2.6700001 1.77
2.79 2.6700001 2.77
2.79 2.6900001 1.25
2.79 2.6900001 1.27
2.79 2.6900001 1.29
2.79 2.6900001 1.3099999
2.79 2.6900001 1.33
2.79 2.6900001 1.35
2.79 2.6900001 1.37
2.79 2.6900001 1.39
2.79 2.6900001 1.41
2.79 2.6900001 1.4299999
2.79 2.6900001 1.53
2.79 2.6900001 1.55
2.79 2.6900001 1.5700001
2.79 2.6900001 1.59
2.79 2.6900001 1.61
2.79 2.6900001 1.63
2.79 2.6900001 1.75
2.79 2.6900001 1.77
2.79 2.6900001 2.79
2.79 2.71 1.11
2.79 2.71 1.13
2.79 2.71 1.15
2.79 2.71 1.17
2.79 2.71 1.1900001
2.79 2.71 1.21
2.79 2.71 1.23
2.79 2.71 1.45
2.79 2.71 1.47
2.79 2.71 1.49
2.79 2.71 1.51
2.79 2.71 1.53
2.79 2.71 1.55
2.79 2.71 1.5700001
2.79 2.71 1.59
2.79 2.71 1.61
2.79 2.71 1.63
2.79 2.71 1.73
2.79 2.71 1.75
2.79 2.71 2.79
2.79 2.73 1.73
2.79 2.73 1.75
2.79 2.73 1.77
2.79 2.73 1.79
2.79 2.73 1.8099999
2.79 2.73 1.83
2.79 2.73 1.85
2.79 2.73 1.87
2.79 2.73 1.89
2.79 2.73 1.91
2.79 2.73 1.9299999
2.79 2.73 2.79
2.79 2.75 1.73
2.79 2.75 1.95
2.79 2.75 1.97
2.79 2.75 1.99
2.79 2.75 2.79
2.79 2.75 2.8099999
2.79 2.77 2.01
2.79 2.77 2.03
2.79 2.77 2.8099999
2.79 2.79 2.03
2.79 2.79 2.05
2.79 2.79 2.8099999
2.79 2.8099999 2.0699999
2.79 2.8299999 2.0899999
2.79 2.8299999 2.8299999
2.79 2.8499999 2.1099999
2.79 2.8499999 2.8299999
2.79 2.8699999 2.1099999
2.79 2.8699999 2.1300001
2.79 2.8699999 2.8299999
2.79 2.8900001 2.1300001
2.79 2.8900001 2.8499999
2.79 2.9100001 2.1500001
2.79 2.9100001 2.8499999
2.79 2.9300001 2.1500001
2.79 2.9300001 2.8499999
2.79 2.95 2.1700001
2.79 2.95 2.8499999
2.79 2.97 2.1700001
2.79 2.97 2.8499999
2.79 2.99 2.1900001
2.79 2.99 2.8699999
2.79 3.01 2.1900001
2.79 3.01 2.8699999
2.79 3.03 2.1900001
2.79 3.03 2.8699999
2.79 3.05 2.21
2.79 3.05 2.8699999
2.79 3.0699999 2.21
2.79 3.0699999 2.8699999
2.79 3.0899999 2.21
2.79 3.0899999 2.8699999
2.79 3.1099999 2.21
2.79 3.1300001 2.23
2.79 3.1300001 2.8900001
2.79 3.1500001 2.23
2.79 3.1500001 2.8900001
2.79 3.1700001 2.23
2.79 3.1700001 2.8900001
2.79 3.1900001 2.23
2.79 3.1900001 2.8900001
2.79 3.21 2.23
2.79 3.21 2.25
2.79 3.21 2.8900001
2.79 3.23 2.25
2.79 3.23 2.8900001
2.79 3.25 2.25
2.79 3.25 2.8900001
2.79 3.27 2.25
2.79 3.27 2.8900001
2.79 3.29 2.25
2.79 3.29 2.8900001
2.79 3.3099999 2.25
2.79 3.3099999 2.9100001
2.79 3.3299999 2.25
2.79 3.3299999 2.9100001
2.79 3.3499999 2.25
2.79 3.3499999 2.9100001
2.79 3.3699999 2.25
2.79 3.3699999 2.27
2.79 3.3699999 2.9100001
2.79 3.3900001 2.27
2.79 3.3900001 2.9100001
2.79 3.4100001 2.27
2.79 3.4100001 2.9100001
2.79 3.4300001 2.27
2.79 3.4300001 2.29
2.79 3.4300001 2.3099999
2.79 3.4300001 2.3299999
2.79 3.4300001 2.3499999
2.79 3.4300001 2.3699999
2.79 3.4300001 2.3900001
2.79 3.4300001 2.4100001
2.79 3.4300001 2.4300001
2.79 3.4300001 2.45
2.79 3.4300001 2.47
2.79 3.4300001 2.49
2.79 3.4300001 2.51
2.79 3.4300001 2.53
2.79 3.4300001 2.55
2.79 3.4300001 2.5699999
2.79 3.4300001 2.5899999
2.79 3.4300001 2.6099999
2.79 3.4300001 2.6300001
2.79 3.4300001 2.6500001
2.79 3.4300001 2.6700001
2.79 3.4300001 2.6900001
2.79 3.4300001 2.71
2.79 3.4300001 2.73
2.79 3.4300001 2.75
2.79 3.4300001 2.77
2.79 3.4300001 2.79
2.79 3.4300001 2.8099999
2.79 3.4300001 2.8299999
2.79 3.4300001 2.8499999
2.79 3.4300001 2.8699999
2.79 3.4300001 2.8900001
2.79 3.4300001 2.9100001
2.8099999 -0.33000001 0.17
2.8099999 -0.33000001 0.19
2.8099999 -0.33000001 0.20999999
2.8099999 -0.33000001 0.23
2.8099999 -0.33000001 0.25
2.8099999 -0.33000001 0.27000001
2.8099999 -0.33000001 0.28999999
2.8099999 -0.33000001 0.31
2.8099999 -0.33000001 0.33000001
2.8099999 -0.33000001 0.34999999
2.8099999 -0.33000001 0.37
2.8099999 -0.33000001 0.38999999
2.8099999 -0.33000001 0.41
2.8099999 -0.33000001 0.43000001
2.8099999 -0.33000001 0.44999999
2.8099999 -0.33000001 0.47
2.8099999 -0.33000001 0.49000001
2.8099999 -0.33000001 0.50999999
2.8099999 -0.33000001 0.52999997
2.8099999 -0.33000001 0.55000001
2.8099999 -0.33000001 0.56999999
2.8099999 -0.33000001 0.58999997
2.8099999 -0.33000001 0.61000001
2.8099999 -0.33000001 0.63
2.8099999 -0.33000001 0.64999998
2.8099999 -0.33000001 0.67000002
2.8099999 -0.33000001 0.69
2.8099999 -0.33000001 0.70999998
2.8099999 -0.33000001 0.73000002
2.8099999 -0.33000001 0.75
2.8099999 -0.33000001 0.76999998
2.8099999 -0.33000001 0.79000002
2.8099999 -0.33000001 0.81
2.8099999 -0.31 0.17
2.8099999 -0.31 0.81
2.8099999 -0.28999999 0.17
2.8099999 -0.28999999 0.81
2.8099999 -0.27000001 0.17
2.8099999 -0.27000001 0.81
2.8099999 -0.25 0.17
2.8099999 -0.25 0.81
2.8099999 -0.23 0.17
2.8099999 -0.23 0.81
2.8099999 -0.20999999 0.17
2.8099999 -0.20999999 0.81
2.8099999 -0.19 0.17
2.8099999 -0.19 0.81
2.8099999 -0.17 0.17
2.8099999 -0.17 0.81
2.8099999 -0.15000001 0.17
2.8099999 -0.15000001 0.81
2.8099999 -0.13 0.17
2.8099999 -0.13 0.81
2.8099999 -0.11 0.17
2.8099999 -0.11 0.81
2.8099999 -0.090000004 0.17
2.8099999 -0.090000004 0.81
2.8099999 -0.07 0.17
2.8099999 -0.07 0.81
2.8099999 -0.050000001 0.17
2.8099999 -0.050000001 0.81
2.8099999 -0.029999999 0.17
2.8099999 -0.029999999 0.81
2.8099999 -0.0099999998 0.17
2.8099999 -0.0099999998 0.81
2.8099999 0.0099999998 0.17
2.8099999 0.0099999998 0.81
2.8099999 0.029999999 0.17
2.8099999 0.029999999 0.81
2.8099999 0.050000001 0.17
2.8099999 0.050000001 0.81
2.8099999 0.07 0.17
2.8099999 0.07 0.81
2.8099999 0.090000004 0.17
2.8099999 0.090000004 0.81
2.8099999 0.11 0.17
2.8099999 0.11 0.81
2.8099999 0.13 0.17
2.8099999 0.13 0.81
2.8099999 0.15000001 0.17
2.8099999 0.15000001 0.81
2.8099999 0.17 0.17
2.8099999 0.17 0.81
2.8099999 0.19 0.17
2.8099999 0.19 0.81
2.8099999 0.20999999 0.17
2.8099999 0.20999999 0.81
2.8099999 0.23 0.17
2.8099999 0.23 0.81
2.8099999 0.25 0.17
2.8099999 0.25 0.81
2.8099999 0.27000001 0.17
2.8099999 0.27000001 0.81
2.8099999 0.28999999 0.17
2.8099999 0.28999999 0.81
2.8099999 0.31 0.17
2.8099999 0.31 0.19
2.8099999 0.31 0.20999999
2.8099999 0.31 0.23
2.8099999 0.31 0.25
2.8099999 0.31 0.27000001
2.8099999 0.31 0.28999999
2.8099999 0.31 0.31
2.8099999 0.31 0.33000001
2.8099999 0.31 0.34999999
2.8099999 0.31 0.37
2.8099999 0.31 0.38999999
2.8099999 0.31 0.41
2.8099999 0.31 0.43000001
2.8099999 0.31 0.44999999
2.8099999 0.31 0.47
2.8099999 0.31 0.49000001
2.8099999 0.31 0.50999999
2.8099999 0.31 0.52999997
2.8099999 0.31 0.55000001
2.8099999 0.31 0.56999999
2.8099999 0.31 0.58999997
2.8099999 0.31 0.61000001
2.8099999 0.31 0.63
2.8099999 0.31 0.64999998
2.8099999 0.31 0.67000002
2.8099999 0.31 0.69
2.8099999 0.31 0.70999998
2.8099999 0.31 0.73000002
2.8099999 0.31 0.75
2.8099999 0.31 0.76999998
2.8099999 0.31 0.79000002
2.8099999 0.31 0.81
2.8099999 2.05 1.25
2.8099999 2.05 1.27
2.8099999 2.05 1.29
2.8099999 2.05 1.3099999
2.8099999 2.05 1.33
2.8099999 2.05 1.35
2.8099999 2.05 1.37
2.8099999 2.05 1.39
2.8099999 2.05 1.41
2.8099999 2.05 1.4299999
2.8099999 2.0699999 1.09
2.8099999 2.0699999 1.11
2.8099999 2.0699999 1.13
2.8099999 2.0699999 1.15
2.8099999 2.0699999 1.17
2.8099999 2.0699999 1.1900001
2.8099999 2.0699999 1.21
2.8099999 2.0699999 1.23
2.8099999 2.0699999 1.25
2.8099999 2.0699999 1.27
2.8099999 2.0699999 1.29
2.8099999 2.0699999 1.3099999
2.8099999 2.0699999 1.33
2.8099999 2.0699999 1.35
2.8099999 2.0699999 1.37
2.8099999 2.0699999 1.39
2.8099999 2.0699999 1.41
2.8099999 2.0699999 1.4299999
2.8099999 2.0699999 1.45
2.8099999 2.0699999 1.47
2.8099999 2.0699999 1.49
2.8099999 2.0699999 1.51
2.8099999 2.0699999 1.53
2.8099999 2.0699999 1.55
2.8099999 2.0899999 1.17
2.8099999 2.0899999 1.1900001
2.8099999 2.0899999 1.21
2.8099999 2.0899999 1.23
2.8099999 2.0899999 1.25
2.8099999 2.0899999 1.27
2.8099999 2.0899999 1.29
2.8099999 2.0899999 1.3099999
2.8099999 2.0899999 1.33
2.8099999 2.0899999 1.35
2.8099999 2.0899999 1.37
2.8099999 2.0899999 1.39
2.8099999 2.0899999 1.41
2.8099999 2.0899999 1.4299999
2.8099999 2.0899999 1.45
2.8099999 2.0899999 1.47
2.8099999 2.0899999 1.49
2.8099999 2.0899999 1.51
2.8099999 2.0899999 1.53
2.8099999 2.0899999 1.55
2.8099999 2.1099999 1.17
2.8099999 2.1099999 1.1900001
2.8099999 2.1099999 1.21
2.8099999 2.1099999 1.23
2.8099999 2.1099999 1.25
2.8099999 2.1099999 1.27
2.8099999 2.1099999 1.29
2.8099999 2.1099999 1.3099999
2.8099999 2.1099999 1.33
2.8099999 2.1099999 1.35
2.8099999 2.1099999 1.37
2.8099999 2.1099999 1.39
2.8099999 2.1099999 1.41
2.8099999 2.1099999 1.4299999
2.8099999 2.1099999 1.45
2.8099999 2.1099999 1.47
2.8099999 2.1099999 1.49
2.8099999 2.1099999 1.51
2.8099999 2.1099999 1.53
2.8099999 2.1099999 1.55
2.8099999 2.1099999 1.85
2.8099999 2.1300001 1.17
2.8099999 2.1300001 1.1900001
2.8099999 2.1300001 1.21
2.8099999 2.1300001 1.23
2.8099999 2.1300001 1.25
2.8099999 2.1300001 1.27
2.8099999 2.1300001 1.29
2.8099999 2.1300001 1.3099999
2.8099999 2.1300001 1.33
2.8099999 2.1300001 1.35
2.8099999 2.1300001 1.37
2.8099999 2.1300001 1.39
2.8099999 2.1300001 1.41
2.8099999 2.1300001 1.4299999
2.8099999 2.1300001 1.45
2.8099999 2.1300001 1.47
2.8099999 2.1300001 1.49
2.8099999 2.1300001 1.51
2.8099999 2.1300001 1.53
2.8099999 2.1300001 1.55
2.8099999 2.1300001 1.77
2.8099999 2.1300001 1.79
2.8099999 2.1300001 1.8099999
2.8099999 2.1300001 1.83
2.8099999 2.1300001 1.85
2.8099999 2.1500001 1.17
2.8099999 2.1500001 1.1900001
2.8099999 2.1500001 1.21
2.8099999 2.1500001 1.23
2.8099999 2.1500001 1.25
2.8099999 2.1500001 1.27
2.8099999 2.1500001 1.29
2.8099999 2.1500001 1.3099999
2.8099999 2.1500001 1.33
2.8099999 2.1500001 1.35
2.8099999 2.1500001 1.37
2.8099999 2.1500001 1.39
2.8099999 2.1500001 1.41
2.8099999 2.1500001 1.4299999
2.8099999 2.1500001 1.45
2.8099999 2.1500001 1.47
2.8099999 2.1500001 1.49
2.8099999 2.1500001 1.51
2.8099999 2.1500001 1.53
2.8099999 2.1500001 1.73
2.8099999 2.1500001 1.75
2.8099999 2.1500001 1.8099999
2.8099999 2.1500001 1.83
2.8099999 2.1500001 1.85
2.8099999 2.1700001 1.17
2.8099999 2.1700001 1.1900001
2.8099999 2.1700001 1.21
2.8099999 2.1700001 1.23
2.8099999 2.1700001 1.25
2.8099999 2.1700001 1.27
2.8099999 2.1700001 1.29
2.8099999 2.1700001 1.3099999
2.8099999 2.1700001 1.33
2.8099999 2.1700001 1.35
2.8099999 2.1700001 1.37
2.8099999 2.1700001 1.39
2.8099999 2.1700001 1.41
2.8099999 2.1700001 1.4299999
2.8099999 2.1700001 1.45
2.8099999 2.1700001 1.47
2.8099999 2.1700001 1.49
2.8099999 2.1700001 1.51
2.8099999 2.1700001 1.53
2.8099999 2.1700001 1.8099999
2.8099999 2.1700001 1.83
2.8099999 2.1900001 1.17
2.8099999 2.1900001 1.1900001
2.8099999 2.1900001 1.21
2.8099999 2.1900001 1.23
2.8099999 2.1900001 1.25
2.8099999 2.1900001 1.27
2.8099999 2.1900001 1.29
2.8099999 2.1900001 1.3099999
2.8099999 2.1900001 1.33
2.8099999 2.1900001 1.35
2.8099999 2.1900001 1.37
2.8099999 2.1900001 1.39
2.8099999 2.1900001 1.41
2.8099999 2.1900001 1.4299999
2.8099999 2.1900001 1.45
2.8099999 2.1900001 1.47
2.8099999 2.1900001 1.49
2.8099999 2.1900001 1.51
2.8099999 2.1900001 1.53
2.8099999 2.1900001 1.79
2.8099999 2.1900001 1.8099999
2.8099999 2.1900001 1.83
2.8099999 2.21 1.17
2.8099999 2.21 1.1900001
2.8099999 2.21 1.21
2.8099999 2.21 1.23
2.8099999 2.21 1.25
2.8099999 2.21 1.27
2.8099999 2.21 1.29
2.8099999 2.21 1.3099999
2.8099999 2.21 1.33
2.8099999 2.21 1.35
2.8099999 2.21 1.37
2.8099999 2.21 1.39
2.8099999 2.21 1.41
2.8099999 2.21 1.4299999
2.8099999 2.21 1.45
2.8099999 2.21 1.47
2.8099999 2.21 1.49
2.8099999 2.21 1.51
2.8099999 2.21 1.53
2.8099999 2.21 1.77
2.8099999 2.21 1.79
2.8099999 2.21 1.8099999
2.8099999 2.21 1.83
2.8099999 2.23 1.17
2.8099999 2.23 1.1900001
2.8099999 2.23 1.21
2.8099999 2.23 1.23
2.8099999 2.23 1.25
2.8099999 2.23 1.27
2.8099999 2.23 1.29
2.8099999 2.23 1.3099999
2.8099999 2.23 1.33
2.8099999 2.23 1.35
2.8099999 2.23 1.37
2.8099999 2.23 1.39
2.8099999 2.23 1.41
2.8099999 2.23 1.4299999
2.8099999 2.23 1.45
2.8099999 2.23 1.47
2.8099999 2.23 1.49
2.8099999 2.23 1.51
2.8099999 2.23 1.53
2.8099999 2.23 1.77
2.8099999 2.23 1.79
2.8099999 2.23 1.8099999
2.8099999 2.25 1.17
2.8099999 2.25 1.1900001
2.8099999 2.25 1.21
2.8099999 2.25 1.23
2.8099999 2.25 1.25
2.8099999 2.25 1.27
2.8099999 2.25 1.29
2.8099999 2.25 1.3099999
2.8099999 2.25 1.33
2.8099999 2.25 1.35
2.8099999 2.25 1.37
2.8099999 2.25 1.39
2.8099999 2.25 1.41
2.8099999 2.25 1.4299999
2.8099999 2.25 1.45
2.8099999 2.25 1.47
2.8099999 2.25 1.49
2.8099999 2.25 1.51
2.8099999 2.25 1.53
2.8099999 2.25 1.75
2.8099999 2.25 1.77
2.8099999 2.25 1.79
2.8099999 2.25 1.8099999
2.8099999 2.27 1.17
2.8099999 2.27 1.1900001
2.8099999 2.27 1.21
2.8099999 2.27 1.23
2.8099999 2.27 1.25
2.8099999 2.27 1.27
2.8099999 2.27 1.29
2.8099999 2.27 1.3099999
2.8099999 2.27 1.33
2.8099999 2.27 1.35
2.8099999 2.27 1.37
2.8099999 2.27 1.39
2.8099999 2.27 1.41
2.8099999 2.27 1.4299999
2.8099999 2.27 1.45
2.8099999 2.27 1.47
2.8099999 2.27 1.49
2.8099999 2.27 1.51
2.8099999 2.27 1.53
2.8099999 2.27 1.75
2.8099999 2.27 1.77
2.8099999 2.27 1.79
2.8099999 2.27 1.8099999
2.8099999 2.29 1.17
2.8099999 2.29 1.1900001
2.8099999 2.29 1.21
2.8099999 2.29 1.23
2.8099999 2.29 1.25
2.8099999 2.29 1.27
2.8099999 2.29 1.29
2.8099999 2.29 1.3099999
2.8099999 2.29 1.33
2.8099999 2.29 1.35
2.8099999 2.29 1.37
2.8099999 2.29 1.39
2.8099999 2.29 1.41
2.8099999 2.29 1.4299999
2.8099999 2.29 1.45
2.8099999 2.29 1.47
2.8099999 2.29 1.49
2.8099999 2.29 1.51
2.8099999 2.29 1.53
2.8099999 2.29 1.73
2.8099999 2.29 1.75
2.8099999 2.29 1.77
2.8099999 2.29 1.79
2.8099999 2.3099999 1.17
2.8099999 2.3099999 1.1900001
2.8099999 2.3099999 1.21
2.8099999 2.3099999 1.23
2.8099999 2.3099999 1.25
2.8099999 2.3099999 1.27
2.8099999 2.3099999 1.29
2.8099999 2.3099999 1.3099999
2.8099999 2.3099999 1.33
2.8099999 2.3099999 1.35
2.8099999 2.3099999 1.37
2.8099999 2.3099999 1.39
2.8099999 2.3099999 1.41
2.8099999 2.3099999 1.4299999
2.8099999 2.3099999 1.45
2.8099999 2.3099999 1.47
2.8099999 2.3099999 1.49
2.8099999 2.3099999 1.51
2.8099999 2.3099999 1.53
2.8099999 2.3099999 1.71
2.8099999 2.3099999 1.73
2.8099999 2.3099999 1.75
2.8099999 2.3099999 1.77
2.8099999 2.3299999 1.17
2.8099999 2.3299999 1.1900001
2.8099999 2.3299999 1.21
2.8099999 2.3299999 1.23
2.8099999 2.3299999 1.25
2.8099999 2.3299999 1.27
2.8099999 2.3299999 1.29
2.8099999 2.3299999 1.3099999
2.8099999 2.3299999 1.33
2.8099999 2.3299999 1.35
2.8099999 2.3299999 1.37
2.8099999 2.3299999 1.39
2.8099999 2.3299999 1.41
2.8099999 2.3299999 1.4299999
2.8099999 2.3299999 1.45
2.8099999 2.3299999 1.47
2.8099999 2.3299999 1.49
2.8099999 2.3299999 1.51
2.8099999 2.3299999 1.53
2.8099999 2.3299999 1.6900001
2.8099999 2.3299999 1.71
2.8099999 2.3299999 1.73
2.8099999 2.3299999 1.75
2.8099999 2.3299999 1.77
2.8099999 2.3499999 1.17
2.8099999 2.3499999 1.1900001
2.8099999 2.3499999 1.21
2.8099999 2.3499999 1.23
2.8099999 2.3499999 1.25
2.8099999 2.3499999 1.27
2.8099999 2.3499999 1.29
2.8099999 2.3499999 1.3099999
2.8099999 2.3499999 1.33
2.8099999 2.3499999 1.35
2.8099999 2.3499999 1.37
2.8099999 2.3499999 1.39
2.8099999 2.3499999 1.41
2.8099999 2.3499999 1.4299999
2.8099999 2.3499999 1.45
2.8099999 2.3499999 1.47
2.8099999 2.3499999 1.49
2.8099999 2.3499999 1.51
2.8099999 2.3499999 1.53
2.8099999 2.3499999 1.6900001
2.8099999 2.3499999 1.71
2.8099999 2.3499999 1.73
2.8099999 2.3499999 1.75
2.8099999 2.3499999 1.77
2.8099999 2.3699999 1.17
2.8099999 2.3699999 1.1900001
2.8099999 2.3699999 1.21
2.8099999 2.3699999 1.23
2.8099999 2.3699999 1.25
2.8099999 2.3699999 1.27
2.8099999 2.3699999 1.29
2.8099999 2.3699999 1.3099999
2.8099999 2.3699999 1.33
2.8099999 2.3699999 1.35
2.8099999 2.3699999 1.37
2.8099999 2.3699999 1.39
2.8099999 2.3699999 1.41
2.8099999 2.3699999 1.4299999
2.8099999 2.3699999 1.45
2.8099999 2.3699999 1.47
2.8099999 2.3699999 1.49
2.8099999 2.3699999 1.51
2.8099999 2.3699999 1.53
2.8099999 2.3699999 1.6900001
2.8099999 2.3699999 1.71
2.8099999 2.3699999 1.73
2.8099999 2.3900001 1.17
2.8099999 2.3900001 1.1900001
2.8099999 2.3900001 1.21
2.8099999 2.3900001 1.23
2.8099999 2.3900001 1.25
2.8099999 2.3900001 1.27
2.8099999 2.3900001 1.29
2.8099999 2.3900001 1.3099999
2.8099999 2.3900001 1.33
2.8099999 2.3900001 1.35
2.8099999 2.3900001 1.37
2.8099999 2.3900001 1.39
2.8099999 2.3900001 1.41
2.8099999 2.3900001 1.4299999
2.8099999 2.3900001 1.45
2.8099999 2.3900001 1.47
2.8099999 2.3900001 1.49
2.8099999 2.3900001 1.51
2.8099999 2.3900001 1.53
2.8099999 2.3900001 1.6900001
2.8099999 2.3900001 1.71
2.8099999 2.4100001 1.17
2.8099999 2.4100001 1.1900001
2.8099999 2.4100001 1.21
2.8099999 2.4100001 1.23
2.8099999 2.4100001 1.25
2.8099999 2.4100001 1.27
2.8099999 2.4100001 1.29
2.8099999 2.4100001 1.3099999
2.8099999 2.4100001 1.33
2.8099999 2.4100001 1.35
2.8099999 2.4100001 1.37
2.8099999 2.4100001 1.39
2.8099999 2.4100001 1.41
2.8099999 2.4100001 1.4299999
2.8099999 2.4100001 1.45
2.8099999 2.4100001 1.47
2.8099999 2.4100001 1.49
2.8099999 2.4100001 1.51
2.8099999 2.4100001 1.53
2.8099999 2.4300001 1.17
2.8099999 2.4300001 1.1900001
2.8099999 2.4300001 1.21
2.8099999 2.4300001 1.23
2.8099999 2.4300001 1.25
2.8099999 2.4300001 1.27
2.8099999 2.4300001 1.29
2.8099999 2.4300001 1.3099999
2.8099999 2.4300001 1.33
2.8099999 2.4300001 1.35
2.8099999 2.4300001 1.37
2.8099999 2.4300001 1.39
2.8099999 2.4300001 1.41
2.8099999 2.4300001 1.4299999
2.8099999 2.4300001 1.45
2.8099999 2.4300001 1.47
2.8099999 2.4300001 1.49
2.8099999 2.4300001 1.51
2.8099999 2.4300001 1.53
2.8099999 2.45 1.17
2.8099999 2.45 1.1900001
2.8099999 2.45 1.21
2.8099999 2.45 1.23
2.8099999 2.45 1.25
2.8099999 2.45 1.27
2.8099999 2.45 1.29
2.8099999 2.45 1.3099999
2.8099999 2.45 1.33
2.8099999 2.45 1.35
2.8099999 2.45 1.37
2.8099999 2.45 1.39
2.8099999 2.45 1.41
2.8099999 2.45 1.4299999
2.8099999 2.45 1.45
2.8099999 2.45 1.47
2.8099999 2.45 1.49
2.8099999 2.45 1.51
2.8099999 2.45 1.53
2.8099999 2.45 2.0899999
2.8099999 2.45 2.1500001
2.8099999 2.47 1.17
2.8099999 2.47 1.1900001
2.8099999 2.47 1.21
2.8099999 2.47 1.23
2.8099999 2.47 1.25
2.8099999 2.47 1.27
2.8099999 2.47 1.29
2.8099999 2.47 1.3099999
2.8099999 2.47 1.33
2.8099999 2.47 1.35
2.8099999 2.47 1.37
2.8099999 2.47 1.39
2.8099999 2.47 1.41
2.8099999 2.47 1.4299999
2.8099999 2.47 1.45
2.8099999 2.47 1.47
2.8099999 2.47 1.49
2.8099999 2.47 1.51
2.8099999 2.47 1.53
2.8099999 2.47 1.95
2.8099999 2.47 1.97
2.8099999 2.47 1.99
2.8099999 2.47 2.01
2.8099999 2.47 2.03
2.8099999 2.47 2.05
2.8099999 2.47 2.0699999
2.8099999 2.47 2.0899999
2.8099999 2.47 2.1099999
2.8099999 2.47 2.1300001
2.8099999 2.47 2.1500001
2.8099999 2.47 2.1700001
2.8099999 2.47 2.1900001
2.8099999 2.47 2.21
2.8099999 2.47 2.23
2.8099999 2.47 2.25
2.8099999 2.47 2.27
2.8099999 2.47 2.29
2.8099999 2.47 2.3099999
2.8099999 2.47 2.3299999
2.8099999 2.47 2.3499999
2.8099999 2.47 2.3699999
2.8099999 2.47 2.4100001
2.8099999 2.49 1.17
2.8099999 2.49 1.1900001
2.8099999 2.49 1.21
2.8099999 2.49 1.23
2.8099999 2.49 1.25
2.8099999 2.49 1.27
2.8099999 2.49 1.29
2.8099999 2.49 1.3099999
2.8099999 2.49 1.33
2.8099999 2.49 1.35
2.8099999 2.49 1.37
2.8099999 2.49 1.39
2.8099999 2.49 1.41
2.8099999 2.49 1.4299999
2.8099999 2.49 1.45
2.8099999 2.49 1.47
2.8099999 2.49 1.49
2.8099999 2.49 1.51
2.8099999 2.49 1.91
2.8099999 2.49 1.9299999
2.8099999 2.49 1.95
2.8099999 2.49 1.97
2.8099999 2.49 1.99
2.8099999 2.49 2.01
2.8099999 2.49 2.03
2.8099999 2.49 2.05
2.8099999 2.49 2.0699999
2.8099999 2.49 2.0899999
2.8099999 2.49 2.1099999
2.8099999 2.49 2.1300001
2.8099999 2.49 2.1500001
2.8099999 2.49 2.1700001
2.8099999 2.49 2.1900001
2.8099999 2.49 2.21
2.8099999 2.49 2.23
2.8099999 2.49 2.25
2.8099999 2.49 2.27
2.8099999 2.49 2.29
2.8099999 2.49 2.3099999
2.8099999 2.49 2.3299999
2.8099999 2.49 2.3499999
2.8099999 2.49 2.3699999
2.8099999 2.49 2.3900001
2.8099999 2.49 2.4100001
2.8099999 2.49 2.4300001
2.8099999 2.49 2.45
2.8099999 2.49 2.47
2.8099999 2.49 2.49
2.8099999 2.49 2.51
2.8099999 2.49 2.53
2.8099999 2.49 2.55
2.8099999 2.49 2.5699999
2.8099999 2.49 2.6500001
2.8099999 2.51 1.1900001
2.8099999 2.51 1.21
2.8099999 2.51 1.23
2.8099999 2.51 1.25
2.8099999 2.51 1.27
2.8099999 2.51 1.29
2.8099999 2.51 1.3099999
2.8099999 2.51 1.33
2.8099999 2.51 1.35
2.8099999 2.51 1.37
2.8099999 2.51 1.39
2.8099999 2.51 1.41
2.8099999 2.51 1.4299999
2.8099999 2.51 1.45
2.8099999 2.51 1.47
2.8099999 2.51 1.49
2.8099999 2.51 1.51
2.8099999 2.51 1.89
2.8099999 2.51 1.91
2.8099999 2.51 1.9299999
2.8099999 2.51 1.95
2.8099999 2.51 1.97
2.8099999 2.51 1.99
2.8099999 2.51 2.01
2.8099999 2.51 2.03
2.8099999 2.51 2.05
2.8099999 2.51 2.0699999
2.8099999 2.51 2.0899999
2.8099999 2.51 2.1099999
2.8099999 2.51 2.1300001
2.8099999 2.51 2.1500001
2.8099999 2.51 2.1900001
2.8099999 2.51 2.21
2.8099999 2.51 2.23
2.8099999 2.51 2.25
2.8099999 2.51 2.27
2.8099999 2.51 2.29
2.8099999 2.51 2.3099999
2.8099999 2.51 2.3499999
2.8099999 2.51 2.3699999
2.8099999 2.51 2.4100001
2.8099999 2.51 2.4300001
2.8099999 2.51 2.45
2.8099999 2.51 2.47
2.8099999 2.51 2.49
2.8099999 2.51 2.51
2.8099999 2.51 2.53
2.8099999 2.51 2.55
2.8099999 2.51 2.5699999
2.8099999 2.51 2.5899999
2.8099999 2.51 2.6099999
2.8099999 2.51 2.6300001
2.8099999 2.51 2.6500001
2.8099999 2.51 2.6700001
2.8099999 2.51 2.6900001
2.8099999 2.51 2.71
2.8099999 2.53 1.1900001
2.8099999 2.53 1.21
2.8099999 2.53 1.23
2.8099999 2.53 1.25
2.8099999 2.53 1.27
2.8099999 2.53 1.29
2.8099999 2.53 1.3099999
2.8099999 2.53 1.33
2.8099999 2.53 1.35
2.8099999 2.53 1.37
2.8099999 2.53 1.39
2.8099999 2.53 1.41
2.8099999 2.53 1.4299999
2.8099999 2.53 1.45
2.8099999 2.53 1.47
2.8099999 2.53 1.49
2.8099999 2.53 1.51
2.8099999 2.53 1.85
2.8099999 2.53 1.87
2.8099999 2.53 1.89
2.8099999 2.53 1.91
2.8099999 2.53 1.9299999
2.8099999 2.53 1.95
2.8099999 2.53 1.97
2.8099999 2.53 1.99
2.8099999 2.53 2.01
2.8099999 2.53 2.03
2.8099999 2.53 2.5899999
2.8099999 2.53 2.6099999
2.8099999 2.53 2.6300001
2.8099999 2.53 2.6500001
2.8099999 2.53 2.6700001
2.8099999 2.53 2.6900001
2.8099999 2.53 2.71
2.8099999 2.55 1.1900001
2.8099999 2.55 1.21
2.8099999 2.55 1.23
2.8099999 2.55 1.25
2.8099999 2.55 1.27
2.8099999 2.55 1.29
2.8099999 2.55 1.3099999
2.8099999 2.55 1.33
2.8099999 2.55 1.35
2.8099999 2.55 1.37
2.8099999 2.55 1.39
2.8099999 2.55 1.41
2.8099999 2.55 1.4299999
2.8099999 2.55 1.45
2.8099999 2.55 1.47
2.8099999 2.55 1.49
2.8099999 2.55 1.51
2.8099999 2.55 1.85
2.8099999 2.55 1.87
2.8099999 2.55 1.89
2.8099999 2.55 1.91
2.8099999 2.55 1.9299999
2.8099999 2.55 1.95
2.8099999 2.55 2.71
2.8099999 2.55 2.73
2.8099999 2.5699999 1.1900001
2.8099999 2.5699999 1.21
2.8099999 2.5699999 1.23
2.8099999 2.5699999 1.25
2.8099999 2.5699999 1.27
2.8099999 2.5699999 1.29
2.8099999 2.5699999 1.3099999
2.8099999 2.5699999 1.33
2.8099999 2.5699999 1.35
2.8099999 2.5699999 1.37
2.8099999 2.5699999 1.39
2.8099999 2.5699999 1.41
2.8099999 2.5699999 1.4299999
2.8099999 2.5699999 1.45
2.8099999 2.5699999 1.47
2.8099999 2.5699999 1.49
2.8099999 2.5699999 1.51
2.8099999 2.5699999 1.83
2.8099999 2.5699999 1.85
2.8099999 2.5699999 1.87
2.8099999 2.5699999 1.89
2.8099999 2.5699999 1.91
2.8099999 2.5699999 1.9299999
2.8099999 2.5699999 2.73
2.8099999 2.5899999 1.1900001
2.8099999 2.5899999 1.21
2.8099999 2.5899999 1.23
2.8099999 2.5899999 1.25
2.8099999 2.5899999 1.27
2.8099999 2.5899999 1.29
2.8099999 2.5899999 1.3099999
2.8099999 2.5899999 1.33
2.8099999 2.5899999 1.35
2.8099999 2.5899999 1.37
2.8099999 2.5899999 1.39
2.8099999 2.5899999 1.41
2.8099999 2.5899999 1.4299999
2.8099999 2.5899999 1.45
2.8099999 2.5899999 1.47
2.8099999 2.5899999 1.49
2.8099999 2.5899999 1.51
2.8099999 2.5899999 1.83
2.8099999 2.5899999 1.85
2.8099999 2.5899999 1.87
2.8099999 2.5899999 1.89
2.8099999 2.5899999 1.91
2.8099999 2.5899999 2.75
2.8099999 2.6099999 1.1900001
2.8099999 2.6099999 1.21
2.8099999 2.6099999 1.23
2.8099999 2.6099999 1.25
2.8099999 2.6099999 1.27
2.8099999 2.6099999 1.29
2.8099999 2.6099999 1.3099999
2.8099999 2.6099999 1.33
2.8099999 2.6099999 1.35
2.8099999 2.6099999 1.37
2.8099999 2.6099999 1.39
2.8099999 2.6099999 1.41
2.8099999 2.6099999 1.4299999
2.8099999 2.6099999 1.45
2.8099999 2.6099999 1.47
2.8099999 2.6099999 1.49
2.8099999 2.6099999 1.51
2.8099999 2.6099999 1.8099999
2.8099999 2.6099999 1.83
2.8099999 2.6099999 1.85
2.8099999 2.6099999 1.87
2.8099999 2.6099999 1.89
2.8099999 2.6099999 2.75
2.8099999 2.6300001 1.1900001
2.8099999 2.6300001 1.21
2.8099999 2.6300001 1.23
2.8099999 2.6300001 1.25
2.8099999 2.6300001 1.27
2.8099999 2.6300001 1.29
2.8099999 2.6300001 1.3099999
2.8099999 2.6300001 1.33
2.8099999 2.6300001 1.35
2.8099999 2.6300001 1.37
2.8099999 2.6300001 1.39
2.8099999 2.6300001 1.41
2.8099999 2.6300001 1.4299999
2.8099999 2.6300001 1.45
2.8099999 2.6300001 1.47
2.8099999 2.6300001 1.49
2.8099999 2.6300001 1.51
2.8099999 2.6300001 1.8099999
2.8099999 2.6300001 1.83
2.8099999 2.6300001 1.85
2.8099999 2.6300001 2.75
2.8099999 2.6300001 2.77
2.8099999 2.6500001 1.1900001
2.8099999 2.6500001 1.21
2.8099999 2.6500001 1.23
2.8099999 2.6500001 1.25
2.8099999 2.6500001 1.27
2.8099999 2.6500001 1.29
2.8099999 2.6500001 1.3099999
2.8099999 2.6500001 1.33
2.8099999 2.6500001 1.35
2.8099999 2.6500001 1.37
2.8099999 2.6500001 1.39
2.8099999 2.6500001 1.41
2.8099999 2.6500001 1.4299999
2.8099999 2.6500001 1.45
2.8099999 2.6500001 1.47
2.8099999 2.6500001 1.49
2.8099999 2.6500001 1.51
2.8099999 2.6500001 1.79
2.8099999 2.6500001 1.8099999
2.8099999 2.6500001 1.83
2.8099999 2.6500001 1.85
2.8099999 2.6500001 2.77
2.8099999 2.6700001 1.1900001
2.8099999 2.6700001 1.21
2.8099999 2.6700001 1.23
2.8099999 2.6700001 1.25
2.8099999 2.6700001 1.27
2.8099999 2.6700001 1.29
2.8099999 2.6700001 1.3099999
2.8099999 2.6700001 1.33
2.8099999 2.6700001 1.35
2.8099999 2.6700001 1.37
2.8099999 2.6700001 1.39
2.8099999 2.6700001 1.41
2.8099999 2.6700001 1.4299999
2.8099999 2.6700001 1.45
2.8099999 2.6700001 1.47
2.8099999 2.6700001 1.49
2.8099999 2.6700001 1.51
2.8099999 2.6700001 1.79
2.8099999 2.6700001 1.8099999
2.8099999 2.6700001 1.83
2.8099999 2.6700001 2.77
2.8099999 2.6700001 2.79
2.8099999 2.6900001 1.1900001
2.8099999 2.6900001 1.21
2.8099999 2.6900001 1.23
2.8099999 2.6900001 1.25
2.8099999 2.6900001 1.27
2.8099999 2.6900001 1.29
2.8099999 2.6900001 1.3099999
2.8099999 2.6900001 1.33
2.8099999 2.6900001 1.35
2.8099999 2.6900001 1.37
2.8099999 2.6900001 1.39
2.8099999 2.6900001 1.41
2.8099999 2.6900001 1.4299999
2.8099999 2.6900001 1.45
2.8099999 2.6900001 1.47
2.8099999 2.6900001 1.49
2.8099999 2.6900001 1.51
2.8099999 2.6900001 1.79
2.8099999 2.6900001 1.8099999
2.8099999 2.6900001 2.79
2.8099999 2.71 1.11
2.8099999 2.71 1.13
2.8099999 2.71 1.15
2.8099999 2.71 1.17
2.8099999 2.71 1.1900001
2.8099999 2.71 1.21
2.8099999 2.71 1.23
2.8099999 2.71 1.45
2.8099999 2.71 1.47
2.8099999 2.71 1.49
2.8099999 2.71 1.51
2.8099999 2.71 1.77
2.8099999 2.71 1.79
2.8099999 2.71 1.8099999
2.8099999 2.71 1.85
2.8099999 2.71 2.79
2.8099999 2.73 1.77
2.8099999 2.73 1.79
2.8099999 2.73 1.8099999
2.8099999 2.73 1.83
2.8099999 2.73 1.85
2.8099999 2.73 1.87
2.8099999 2.73 1.89
2.8099999 2.73 1.91
2.8099999 2.73 1.9299999
2.8099999 2.73 1.95
2.8099999 2.73 2.8099999
2.8099999 2.75 1.97
2.8099999 2.75 1.99
2.8099999 2.75 2.8099999
2.8099999 2.77 2.01
2.8099999 2.77 2.03
2.8099999 2.77 2.8099999
2.8099999 2.79 2.05
2.8099999 2.79 2.0699999
2.8099999 2.79 2.8299999
2.8099999 2.8099999 2.0699999
2.8099999 2.8099999 2.0899999
2.8099999 2.8099999 2.8299999
2.8099999 2.8299999 2.0899999
2.8099999 2.8299999 2.8299999
2.8099999 2.8499999 2.1099999
2.8099999 2.8499999 2.8299999
2.8099999 2.8699999 2.1300001
2.8099999 2.8900001 2.1300001
2.8099999 2.8900001 2.1500001
2.8099999 2.8900001 2.8499999
2.8099999 2.9100001 2.1500001
2.8099999 2.9100001 2.8499999
2.8099999 2.9300001 2.1700001
2.8099999 2.9300001 2.8499999
2.8099999 2.95 2.1700001
2.8099999 2.95 2.8499999
2.8099999 2.95 2.8699999
2.8099999 2.97 2.1700001
2.8099999 2.97 2.1900001
2.8099999 2.97 2.8699999
2.8099999 2.99 2.1900001
2.8099999 2.99 2.8699999
2.8099999 3.01 2.1900001
2.8099999 3.01 2.8699999
2.8099999 3.03 2.21
2.8099999 3.03 2.8699999
2.8099999 3.05 2.21
2.8099999 3.05 2.8699999
2.8099999 3.0699999 2.21
2.8099999 3.0699999 2.8699999
2.8099999 3.0899999 2.21
2.8099999 3.0899999 2.23
2.8099999 3.0899999 2.8900001
2.8099999 3.1099999 2.23
2.8099999 3.1099999 2.8900001
2.8099999 3.1300001 2.23
2.8099999 3.1300001 2.8900001
2.8099999 3.1500001 2.23
2.8099999 3.1500001 2.8900001
2.8099999 3.1700001 2.23
2.8099999 3.1700001 2.8900001
2.8099999 3.1900001 2.25
2.8099999 3.1900001 2.8900001
2.8099999 3.21 2.25
2.8099999 3.21 2.8900001
2.8099999 3.23 2.25
2.8099999 3.23 2.8900001
2.8099999 3.25 2.25
2.8099999 3.25 2.8900001
2.8099999 3.27 2.25
2.8099999 3.27 2.9100001
2.8099999 3.29 2.25
2.8099999 3.29 2.9100001
2.8099999 3.3099999 2.25
2.8099999 3.3099999 2.9100001
2.8099999 3.3299999 2.25
2.8099999 3.3299999 2.9100001
2.8099999 3.3499999 2.25
2.8099999 3.3499999 2.27
2.8099999 3.3499999 2.9100001
2.8099999 3.3699999 2.27
2.8099999 3.3699999 2.9100001
2.8099999 3.3900001 2.27
2.8099999 3.3900001 2.9100001
2.8099999 3.4100001 2.27
2.8099999 3.4100001 2.9100001
2.8099999 3.4300001 2.27
2.8099999 3.4300001 2.9100001
2.8099999 3.45 2.27
2.8099999 3.45 2.29
2.8099999 3.45 2.3099999
2.8099999 3.45 2.3299999
2.8099999 3.45 2.3499999
2.8099999 3.45 2.3699999
2.8099999 3.45 2.3900001
2.8099999 3.45 2.4100001
2.8099999 3.45 2.4300001
2.8099999 3.45 2.45
2.8099999 3.45 2.47
2.8099999 3.45 2.49
2.8099999 3.45 2.51
2.8099999 3.45 2.53
2.8099999 3.45 2.55
2.8099999 3.45 2.5699999
2.8099999 3.45 2.5899999
2.8099999 3.45 2.6099999
2.8099999 3.45 2.6300001
2.8099999 3.45 2.6500001
2.8099999 3.45 2.6700001
2.8099999 3.45 2.6900001
2.8099999 3.45 2.71
2.8099999 3.45 2.73
2.8099999 3.45 2.75
2.8099999 3.45 2.77
2.8099999 3.45 2.79
2.8099999 3.45 2.8099999
2.8099999 3.45 2.8299999
2.8099999 3.45 2.8499999
2.8099999 3.45 2.8699999
2.8099999 3.45 2.8900001
2.8099999 3.45 2.9100001
2.8299999 -0.33000001 0.17
2.8299999 -0.33000001 0.19
2.8299999 -0.33000001 0.20999999
2.8299999 -0.33000001 0.23
2.8299999 -0.33000001 0.25
2.8299999 -0.33000001 0.27000001
2.8299999 -0.33000001 0.28999999
2.8299999 -0.33000001 0.31
2.8299999 -0.33000001 0.33000001
2.8299999 -0.33000001 0.34999999
2.8299999 -0.33000001 0.37
2.8299999 -0.33000001 0.38999999
2.8299999 -0.33000001 0.41
2.8299999 -0.33000001 0.43000001
2.8299999 -0.33000001 0.44999999
2.8299999 -0.33000001 0.47
2.8299999 -0.33000001 0.49000001
2.8299999 -0.33000001 0.50999999
2.8299999 -0.33000001 0.52999997
2.8299999 -0.33000001 0.55000001
2.8299999 -0.33000001 0.56999999
2.8299999 -0.33000001 0.58999997
2.8299999 -0.33000001 0.61000001
2.8299999 -0.33000001 0.63
2.8299999 -0.33000001 0.64999998
2.8299999 -0.33000001 0.67000002
2.8299999 -0.33000001 0.69
2.8299999 -0.33000001 0.70999998
2.8299999 -0.33000001 0.73000002
2.8299999 -0.33000001 0.75
2.8299999 -0.33000001 0.76999998
2.8299999 -0.33000001 0.79000002
2.8299999 -0.33000001 0.81
2.8299999 -0.31 0.17
2.8299999 -0.31 0.81
2.8299999 -0.28999999 0.17
2.8299999 -0.28999999 0.81
2.8299999 -0.27000001 0.17
2.8299999 -0.27000001 0.81
2.8299999 -0.25 0.17
2.8299999 -0.25 0.81
2.8299999 -0.23 0.17
2.8299999 -0.23 0.81
2.8299999 -0.20999999 0.17
2.8299999 -0.20999999 0.81
2.8299999 -0.19 0.17
2.8299999 -0.19 0.81
2.8299999 -0.17 0.17
2.8299999 -0.17 0.81
2.8299999 -0.15000001 0.17
2.8299999 -0.15000001 0.81
2.8299999 -0.13 0.17
2.8299999 -0.13 0.81
2.8299999 -0.11 0.17
2.8299999 -0.11 0.81
2.8299999 -0.090000004 0.17
2.8299999 -0.090000004 0.81
2.8299999 -0.07 0.17
2.8299999 -0.07 0.81
2.8299999 -0.050000001 0.17
2.8299999 -0.050000001 0.81
2.8299999 -0.029999999 0.17
2.8299999 -0.029999999 0.81
2.8299999 -0.0099999998 0.17
2.8299999 -0.0099999998 0.81
2.8299999 0.0099999998 0.17
2.8299999 0.0099999998 0.81
2.8299999 0.029999999 0.17
2.8299999 0.029999999 0.81
2.8299999 0.050000001 0.17
2.8299999 0.050000001 0.81
2.8299999 0.07 0.17
2.8299999 0.07 0.81
2.8299999 0.090000004 0.17
2.8299999 0.090000004 0.81
2.8299999 0.11 0.17
2.8299999 0.11 0.81
2.8299999 0.13 0.17
2.8299999 0.13 0.81
2.8299999 0.15000001 0.17
2.8299999 0.15000001 0.81
2.8299999 0.17 0.17
2.8299999 0.17 0.81
2.8299999 0.19 0.17
2.8299999 0.19 0.81
2.8299999 0.20999999 0.17
2.8299999 0.20999999 0.81
2.8299999 0.23 0.17
2.8299999 0.23 0.81
2.8299999 0.25 0.17
2.8299999 0.25 0.81
2.8299999 0.27000001 0.17
2.8299999 0.27000001 0.81
2.8299999 0.28999999 0.17
2.8299999 0.28999999 0.81
2.8299999 0.31 0.17
2.8299999 0.31 0.19
2.8299999 0.31 0.20999999
2.8299999 0.31 0.23
2.8299999 0.31 0.25
2.8299999 0.31 0.27000001
2.8299999 0.31 0.28999999
2.8299999 0.31 0.31
2.8299999 0.31 0.33000001
2.8299999 0.31 0.34999999
2.8299999 0.31 0.37
2.8299999 0.31 0.38999999
2.8299999 0.31 0.41
2.8299999 0.31 0.43000001
2.8299999 0.31 0.44999999
2.8299999 0.31 0.47
2.8299999 0.31 0.49000001
2.8299999 0.31 0.50999999
2.8299999 0.31 0.52999997
2.8299999 0.31 0.55000001
2.8299999 0.31 0.56999999
2.8299999 0.31 0.58999997
2.8299999 0.31 0.61000001
2.8299999 0.31 0.63
2.8299999 0.31 0.64999998
2.8299999 0.31 0.67000002
2.8299999 0.31 0.69
2.8299999 0.31 0.70999998
2.8299999 0.31 0.73000002
2.8299999 0.31 0.75
2.8299999 0.31 0.76999998
2.8299999 0.31 0.79000002
2.8299999 0.31 0.81
2.8299999 2.0699999 1.09
2.8299999 2.0699999 1.11
2.8299999 2.0699999 1.13
2.8299999 2.0699999 1.15
2.8299999 2.0899999 1.09
2.8299999 2.0899999 1.11
2.8299999 2.0899999 1.13
2.8299999 2.0899999 1.15
2.8299999 2.1099999 1.09
2.8299999 2.1099999 1.11
2.8299999 2.1099999 1.13
2.8299999 2.1099999 1.15
2.8299999 2.1300001 1.09
2.8299999 2.1300001 1.11
2.8299999 2.1300001 1.13
2.8299999 2.1300001 1.15
2.8299999 2.1300001 1.79
2.8299999 2.1300001 1.8099999
2.8299999 2.1500001 1.09
2.8299999 2.1500001 1.11
2.8299999 2.1500001 1.13
2.8299999 2.1500001 1.15
2.8299999 2.1500001 1.73
2.8299999 2.1500001 1.75
2.8299999 2.1500001 1.77
2.8299999 2.1500001 1.79
2.8299999 2.1700001 1.09
2.8299999 2.1700001 1.11
2.8299999 2.1700001 1.13
2.8299999 2.1700001 1.15
2.8299999 2.1700001 1.75
2.8299999 2.1700001 1.77
2.8299999 2.1700001 1.79
2.8299999 2.1900001 1.09
2.8299999 2.1900001 1.11
2.8299999 2.1900001 1.13
2.8299999 2.1900001 1.15
2.8299999 2.1900001 1.75
2.8299999 2.1900001 1.77
2.8299999 2.21 1.09
2.8299999 2.21 1.11
2.8299999 2.21 1.13
2.8299999 2.21 1.15
2.8299999 2.21 1.73
2.8299999 2.21 1.75
2.8299999 2.23 1.09
2.8299999 2.23 1.11
2.8299999 2.23 1.13
2.8299999 2.23 1.15
2.8299999 2.23 1.71
2.8299999 2.23 1.73
2.8299999 2.23 1.75
2.8299999 2.25 1.09
2.8299999 2.25 1.11
2.8299999 2.25 1.13
2.8299999 2.25 1.15
2.8299999 2.25 1.71
2.8299999 2.25 1.73
2.8299999 2.25 1.75
2.8299999 2.27 1.09
2.8299999 2.27 1.11
2.8299999 2.27 1.13
2.8299999 2.27 1.15
2.8299999 2.27 1.71
2.8299999 2.27 1.73
2.8299999 2.29 1.09
2.8299999 2.29 1.11
2.8299999 2.29 1.13
2.8299999 2.29 1.15
2.8299999 2.29 1.71
2.8299999 2.3099999 1.09
2.8299999 2.3099999 1.11
2.8299999 2.3099999 1.13
2.8299999 2.3099999 1.15
2.8299999 2.3299999 1.09
2.8299999 2.3299999 1.11
2.8299999 2.3299999 1.13
2.8299999 2.3299999 1.15
2.8299999 2.3499999 1.09
2.8299999 2.3499999 1.11
2.8299999 2.3499999 1.13
2.8299999 2.3499999 1.15
2.8299999 2.3699999 1.09
2.8299999 2.3699999 1.11
2.8299999 2.3699999 1.13
2.8299999 2.3699999 1.15
2.8299999 2.3900001 1.09
2.8299999 2.3900001 1.11
2.8299999 2.3900001 1.13
2.8299999 2.3900001 1.15
2.8299999 2.4100001 1.09
2.8299999 2.4100001 1.11
2.8299999 2.4100001 1.13
2.8299999 2.4100001 1.15
2.8299999 2.4300001 1.09
2.8299999 2.4300001 1.11
2.8299999 2.4300001 1.13
2.8299999 2.4300001 1.15
2.8299999 2.45 1.11
2.8299999 2.45 1.13
2.8299999 2.45 1.15
2.8299999 2.47 1.11
2.8299999 2.47 1.13
2.8299999 2.47 1.15
2.8299999 2.47 1.17
2.8299999 2.49 1.11
2.8299999 2.49 1.13
2.8299999 2.49 1.15
2.8299999 2.49 1.17
2.8299999 2.51 1.11
2.8299999 2.51 1.13
2.8299999 2.51 1.15
2.8299999 2.51 1.17
2.8299999 2.51 2.1500001
2.8299999 2.51 2.1900001
2.8299999 2.51 2.23
2.8299999 2.51 2.27
2.8299999 2.51 2.3299999
2.8299999 2.51 2.3699999
2.8299999 2.53 1.11
2.8299999 2.53 1.13
2.8299999 2.53 1.15
2.8299999 2.53 1.17
2.8299999 2.53 2.01
2.8299999 2.53 2.0699999
2.8299999 2.53 2.0899999
2.8299999 2.53 2.1099999
2.8299999 2.53 2.1300001
2.8299999 2.53 2.1500001
2.8299999 2.53 2.1700001
2.8299999 2.53 2.1900001
2.8299999 2.53 2.21
2.8299999 2.53 2.23
2.8299999 2.53 2.25
2.8299999 2.53 2.27
2.8299999 2.53 2.29
2.8299999 2.53 2.3099999
2.8299999 2.53 2.3299999
2.8299999 2.53 2.3499999
2.8299999 2.53 2.3699999
2.8299999 2.53 2.3900001
2.8299999 2.53 2.4100001
2.8299999 2.53 2.4300001
2.8299999 2.53 2.45
2.8299999 2.53 2.47
2.8299999 2.53 2.49
2.8299999 2.53 2.51
2.8299999 2.53 2.53
2.8299999 2.53 2.55
2.8299999 2.53 2.5699999
2.8299999 2.53 2.5899999
2.8299999 2.53 2.6099999
2.8299999 2.53 2.6300001
2.8299999 2.55 1.11
2.8299999 2.55 1.13
2.8299999 2.55 1.15
2.8299999 2.55 1.17
2.8299999 2.55 1.99
2.8299999 2.55 2.01
2.8299999 2.55 2.03
2.8299999 2.55 2.05
2.8299999 2.55 2.0699999
2.8299999 2.55 2.0899999
2.8299999 2.55 2.1099999
2.8299999 2.55 2.1300001
2.8299999 2.55 2.1500001
2.8299999 2.55 2.1700001
2.8299999 2.55 2.1900001
2.8299999 2.55 2.21
2.8299999 2.55 2.23
2.8299999 2.55 2.25
2.8299999 2.55 2.27
2.8299999 2.55 2.3099999
2.8299999 2.55 2.3299999
2.8299999 2.55 2.3499999
2.8299999 2.55 2.3699999
2.8299999 2.55 2.3900001
2.8299999 2.55 2.4300001
2.8299999 2.55 2.45
2.8299999 2.55 2.47
2.8299999 2.55 2.49
2.8299999 2.55 2.51
2.8299999 2.55 2.53
2.8299999 2.55 2.55
2.8299999 2.55 2.5699999
2.8299999 2.55 2.5899999
2.8299999 2.55 2.6099999
2.8299999 2.55 2.6300001
2.8299999 2.55 2.6500001
2.8299999 2.55 2.6700001
2.8299999 2.55 2.6900001
2.8299999 2.55 2.71
2.8299999 2.55 2.73
2.8299999 2.5699999 1.11
2.8299999 2.5699999 1.13
2.8299999 2.5699999 1.15
2.8299999 2.5699999 1.17
2.8299999 2.5699999 1.95
2.8299999 2.5699999 1.97
2.8299999 2.5699999 1.99
2.8299999 2.5699999 2.01
2.8299999 2.5699999 2.03
2.8299999 2.5699999 2.05
2.8299999 2.5699999 2.0699999
2.8299999 2.5699999 2.0899999
2.8299999 2.5699999 2.1099999
2.8299999 2.5699999 2.6300001
2.8299999 2.5699999 2.6500001
2.8299999 2.5699999 2.6700001
2.8299999 2.5699999 2.6900001
2.8299999 2.5699999 2.71
2.8299999 2.5699999 2.73
2.8299999 2.5699999 2.75
2.8299999 2.5899999 1.11
2.8299999 2.5899999 1.13
2.8299999 2.5899999 1.15
2.8299999 2.5899999 1.17
2.8299999 2.5899999 1.9299999
2.8299999 2.5899999 1.95
2.8299999 2.5899999 1.97
2.8299999 2.5899999 1.99
2.8299999 2.5899999 2.01
2.8299999 2.5899999 2.03
2.8299999 2.5899999 2.75
2.8299999 2.6099999 1.11
2.8299999 2.6099999 1.13
2.8299999 2.6099999 1.15
2.8299999 2.6099999 1.17
2.8299999 2.6099999 1.91
2.8299999 2.6099999 1.9299999
2.8299999 2.6099999 1.95
2.8299999 2.6099999 1.97
2.8299999 2.6099999 2.75
2.8299999 2.6099999 2.77
2.8299999 2.6300001 1.11
2.8299999 2.6300001 1.13
2.8299999 2.6300001 1.15
2.8299999 2.6300001 1.17
2.8299999 2.6300001 1.87
2.8299999 2.6300001 1.89
2.8299999 2.6300001 1.91
2.8299999 2.6300001 1.9299999
2.8299999 2.6300001 1.95
2.8299999 2.6300001 2.77
2.8299999 2.6500001 1.11
2.8299999 2.6500001 1.13
2.8299999 2.6500001 1.15
2.8299999 2.6500001 1.17
2.8299999 2.6500001 1.87
2.8299999 2.6500001 1.89
2.8299999 2.6500001 1.91
2.8299999 2.6500001 1.9299999
2.8299999 2.6500001 2.77
2.8299999 2.6700001 1.11
2.8299999 2.6700001 1.13
2.8299999 2.6700001 1.15
2.8299999 2.6700001 1.17
2.8299999 2.6700001 1.85
2.8299999 2.6700001 1.87
2.8299999 2.6700001 2.79
2.8299999 2.6900001 1.11
2.8299999 2.6900001 1.13
2.8299999 2.6900001 1.15
2.8299999 2.6900001 1.17
2.8299999 2.6900001 1.83
2.8299999 2.6900001 1.85
2.8299999 2.6900001 1.87
2.8299999 2.6900001 2.79
2.8299999 2.71 1.11
2.8299999 2.71 1.13
2.8299999 2.71 1.15
2.8299999 2.71 1.17
2.8299999 2.71 1.83
2.8299999 2.71 1.85
2.8299999 2.71 1.87
2.8299999 2.71 1.89
2.8299999 2.71 2.79
2.8299999 2.71 2.8099999
2.8299999 2.73 1.8099999
2.8299999 2.73 1.91
2.8299999 2.73 1.9299999
2.8299999 2.73 1.95
2.8299999 2.73 1.97
2.8299999 2.73 2.8099999
2.8299999 2.75 1.99
2.8299999 2.75 2.01
2.8299999 2.75 2.8099999
2.8299999 2.77 2.03
2.8299999 2.77 2.05
2.8299999 2.77 2.8099999
2.8299999 2.79 2.0699999
2.8299999 2.79 2.8299999
2.8299999 2.8099999 2.0899999
2.8299999 2.8099999 2.8299999
2.8299999 2.8299999 2.1099999
2.8299999 2.8299999 2.8299999
2.8299999 2.8499999 2.1099999
2.8299999 2.8499999 2.1300001
2.8299999 2.8499999 2.8499999
2.8299999 2.8699999 2.1300001
2.8299999 2.8699999 2.8499999
2.8299999 2.8900001 2.1500001
2.8299999 2.8900001 2.8499999
2.8299999 2.9100001 2.1500001
2.8299999 2.9100001 2.1700001
2.8299999 2.9100001 2.8499999
2.8299999 2.9300001 2.1700001
2.8299999 2.9300001 2.8499999
2.8299999 2.9300001 2.8699999
2.8299999 2.95 2.1700001
2.8299999 2.95 2.1900001
2.8299999 2.95 2.8699999
2.8299999 2.97 2.1900001
2.8299999 2.97 2.8699999
2.8299999 2.99 2.1900001
2.8299999 2.99 2.8699999
2.8299999 3.01 2.1900001
2.8299999 3.01 2.21
2.8299999 3.01 2.8699999
2.8299999 3.03 2.21
2.8299999 3.03 2.8699999
2.8299999 3.05 2.21
2.8299999 3.05 2.8900001
2.8299999 3.0699999 2.21
2.8299999 3.0699999 2.8900001
2.8299999 3.0899999 2.23
2.8299999 3.0899999 2.8900001
2.8299999 3.1099999 2.23
2.8299999 3.1099999 2.8900001
2.8299999 3.1300001 2.23
2.8299999 3.1300001 2.8900001
2.8299999 3.1500001 2.23
2.8299999 3.1500001 2.8900001
2.8299999 3.1700001 2.23
2.8299999 3.1700001 2.25
2.8299999 3.1700001 2.8900001
2.8299999 3.1900001 2.25
2.8299999 3.1900001 2.8900001
2.8299999 3.21 2.25
2.8299999 3.21 2.8900001
2.8299999 3.23 2.25
2.8299999 3.23 2.8900001
2.8299999 3.25 2.25
2.8299999 3.25 2.9100001
2.8299999 3.27 2.25
2.8299999 3.27 2.9100001
2.8299999 3.29 2.25
2.8299999 3.29 2.9100001
2.8299999 3.3099999 2.25
2.8299999 3.3099999 2.9100001
2.8299999 3.3299999 2.27
2.8299999 3.3299999 2.9100001
2.8299999 3.3499999 2.27
2.8299999 3.3499999 2.9100001
2.8299999 3.3699999 2.27
2.8299999 3.3699999 2.9100001
2.8299999 3.3900001 2.27
2.8299999 3.3900001 2.9100001
2.8299999 3.4100001 2.27
2.8299999 3.4100001 2.9100001
2.8299999 3.4300001 2.27
2.8299999 3.4300001 2.9100001
2.8299999 3.45 2.27
2.8299999 3.45 2.29
2.8299999 3.45 2.3099999
2.8299999 3.45 2.3299999
2.8299999 3.45 2.3499999
2.8299999 3.45 2.3699999
2.8299999 3.45 2.3900001
2.8299999 3.45 2.4100001
2.8299999 3.45 2.4300001
2.8299999 3.45 2.45
2.8299999 3.45 2.47
2.8299999 3.45 2.49
2.8299999 3.45 2.51
2.8299999 3.45 2.53
2.8299999 3.45 2.55
2.8299999 3.45 2.5699999
2.8299999 3.45 2.5899999
2.8299999 3.45 2.6099999
2.8299999 3.45 2.6300001
2.8299999 3.45 2.6500001
2.8299999 3.45 2.6700001
2.8299999 3.45 2.6900001
2.8299999 3.45 2.71
2.8299999 3.45 2.73
2.8299999 3.45 2.75
2.8299999 3.45 2.77
2.8299999 3.45 2.79
2.8299999 3.45 2.8099999
2.8299999 3.45 2.8299999
2.8299999 3.45 2.8499999
2.8299999 3.45 2.8699999
2.8299999 3.45 2.8900001
2.8299999 3.45 2.9100001
2.8299999 3.47 2.3099999
2.8299999 3.47 2.3699999
2.8299999 3.47 2.3900001
2.8299999 3.47 2.45
2.8299999 3.47 2.51
2.8299999 3.47 2.53
2.8299999 3.47 2.6099999
2.8299999 3.47 2.6900001
2.8299999 3.47 2.71
2.8299999 3.47 2.77
2.8299999 3.47 2.79
2.8299999 3.47 2.8099999
2.8299999 3.47 2.8699999
2.8299999 3.47 2.8900001
2.8299999 3.47 2.9100001
2.8499999 -0.33000001 0.17
2.8499999 -0.33000001 0.19
2.8499999 -0.33000001 0.20999999
2.8499999 -0.33000001 0.23
2.8499999 -0.33000001 0.25
2.8499999 -0.33000001 0.27000001
2.8499999 -0.33000001 0.28999999
2.8499999 -0.33000001 0.31
2.8499999 -0.33000001 0.33000001
2.8499999 -0.33000001 0.34999999
2.8499999 -0.33000001 0.37
2.8499999 -0.33000001 0.38999999
2.8499999 -0.33000001 0.41
2.8499999 -0.33000001 0.43000001
2.8499999 -0.33000001 0.44999999
2.8499999 -0.33000001 0.47
2.8499999 -0.33000001 0.49000001
2.8499999 -0.33000001 0.50999999
2.8499999 -0.33000001 0.52999997
2.8499999 -0.33000001 0.55000001
2.8499999 -0.33000001 0.56999999
2.8499999 -0.33000001 0.58999997
2.8499999 -0.33000001 0.61000001
2.8499999 -0.33000001 0.63
2.8499999 -0.33000001 0.64999998
2.8499999 -0.33000001 0.67000002
2.8499999 -0.33000001 0.69
2.8499999 -0.33000001 0.70999998
2.8499999 -0.33000001 0.73000002
2.8499999 -0.33000001 0.75
2.8499999 -0.33000001 0.76999998
2.8499999 -0.33000001 0.79000002
2.8499999 -0.33000001 0.81
2.8499999 -0.31 0.17
2.8499999 -0.31 0.81
2.8499999 -0.28999999 0.17
2.8499999 -0.28999999 0.81
2.8499999 -0.27000001 0.17
2.8499999 -0.27000001 0.81
2.8499999 -0.25 0.17
2.8499999 -0.25 0.81
2.8499999 -0.23 0.17
2.8499999 -0.23 0.81
2.8499999 -0.20999999 0.17
2.8499999 -0.20999999 0.81
2.8499999 -0.19 0.17
2.8499999 -0.19 0.81
2.8499999 -0.17 0.17
2.8499999 -0.17 0.81
2.8499999 -0.15000001 0.17
2.8499999 -0.15000001 0.81
2.8499999 -0.13 0.17
2.8499999 -0.13 0.81
2.8499999 -0.11 0.17
2.8499999 -0.11 0.81
2.8499999 -0.090000004 0.17
2.8499999 -0.090000004 0.81
2.8499999 -0.07 0.17
2.8499999 -0.07 0.81
2.8499999 -0.050000001 0.17
2.8499999 -0.050000001 0.81
2.8499999 -0.029999999 0.17
2.8499999 -0.029999999 0.81
2.8499999 -0.0099999998 0.17
2.8499999 -0.0099999998 0.81
2.8499999 0.0099999998 0.17
2.8499999 0.0099999998 0.81
2.8499999 0.029999999 0.17
2.8499999 0.029999999 0.81
2.8499999 0.050000001 0.17
2.8499999 0.050000001 0.81
2.8499999 0.07 0.17
2.8499999 0.07 0.81
2.8499999 0.090000004 0.17
2.8499999 0.090000004 0.81
2.8499999 0.11 0.17
2.8499999 0.11 0.81
2.8499999 0.13 0.17
2.8499999 0.13 0.81
2.8499999 0.15000001 0.17
2.8499999 0.15000001 0.81
2.8499999 0.17 0.17
2.8499999 0.17 0.81
2.8499999 0.19 0.17
2.8499999 0.19 0.81
2.8499999 0.20999999 0.17
2.8499999 0.20999999 0.81
2.8499999 0.23 0.17
2.8499999 0.23 0.81
2.8499999 0.25 0.17
2.8499999 0.25 0.81
2.8499999 0.27000001 0.17
2.8499999 0.27000001 0.81
