# .PCD v0.7 - Point Cloud Data file format
VERSION 0.7
FIELDS x y z
SIZE 4 4 4
TYPE F F F
COUNT 1 1 1
WIDTH 1809
HEIGHT 1
VIEWPOINT 0 0 0 1 0 0 0
POINTS 1809
DATA ascii
5.23 0.37 0.37
5.23 0.37 0.38999999
5.23 0.37 0.41
5.23 0.37 0.61000001
5.23 0.37 0.63
5.23 0.37 0.64999998
5.23 0.38999999 0.43000001
5.23 0.38999999 0.44999999
5.23 0.38999999 0.47
5.23 0.38999999 0.49000001
5.23 0.38999999 0.50999999
5.23 0.38999999 0.52999997
5.23 0.38999999 0.55000001
5.23 0.38999999 0.56999999
5.23 0.38999999 0.58999997
5.25 -0.37 0.43000001
5.25 -0.37 0.44999999
5.25 -0.37 0.47
5.25 -0.37 0.49000001
5.25 -0.37 0.50999999
5.25 -0.37 0.52999997
5.25 -0.37 0.55000001
5.25 -0.37 0.56999999
5.25 -0.37 0.58999997
5.25 -0.34999999 0.37
5.25 -0.34999999 0.38999999
5.25 -0.34999999 0.41
5.25 -0.34999999 0.61000001
5.25 -0.34999999 0.63
5.25 -0.34999999 0.64999998
5.25 -0.33000001 0.33000001
5.25 -0.33000001 0.34999999
5.25 -0.33000001 0.67000002
5.25 -0.33000001 0.69
5.25 -0.31 0.31
5.25 -0.31 0.70999998
5.25 -0.28999999 0.27000001
5.25 -0.28999999 0.28999999
5.25 -0.28999999 0.73000002
5.25 -0.28999999 0.75
5.25 -0.27000001 0.25
5.25 -0.27000001 0.76999998
5.25 -0.25 0.23
5.25 -0.25 0.79000002
5.25 -0.23 0.20999999
5.25 -0.23 0.81
5.25 -0.20999999 0.20999999
5.25 -0.20999999 0.81
5.25 -0.19 0.19
5.25 -0.19 0.82999998
5.25 -0.17 0.17
5.25 -0.17 0.85000002
5.25 -0.15000001 0.17
5.25 -0.15000001 0.85000002
5.25 -0.13 0.15000001
5.25 -0.13 0.87
5.25 -0.11 0.15000001
5.25 -0.11 0.87
5.25 -0.090000004 0.15000001
5.25 -0.090000004 0.87
5.25 -0.07 0.13
5.25 -0.07 0.88999999
5.25 -0.050000001 0.13
5.25 -0.050000001 0.88999999
5.25 -0.029999999 0.13
5.25 -0.029999999 0.88999999
5.25 -0.0099999998 0.13
5.25 -0.0099999998 0.88999999
5.25 0.0099999998 0.13
5.25 0.0099999998 0.88999999
5.25 0.029999999 0.13
5.25 0.029999999 0.88999999
5.25 0.050000001 0.13
5.25 0.050000001 0.88999999
5.25 0.07 0.13
5.25 0.07 0.88999999
5.25 0.090000004 0.13
5.25 0.090000004 0.88999999
5.25 0.11 0.15000001
5.25 0.11 0.87
5.25 0.13 0.15000001
5.25 0.13 0.87
5.25 0.15000001 0.15000001
5.25 0.15000001 0.87
5.25 0.17 0.17
5.25 0.17 0.85000002
5.25 0.19 0.17
5.25 0.19 0.85000002
5.25 0.20999999 0.19
5.25 0.20999999 0.82999998
5.25 0.23 0.20999999
5.25 0.23 0.81
5.25 0.25 0.20999999
5.25 0.25 0.81
5.25 0.27000001 0.23
5.25 0.27000001 0.79000002
5.25 0.28999999 0.25
5.25 0.28999999 0.76999998
5.25 0.31 0.27000001
5.25 0.31 0.28999999
5.25 0.31 0.73000002
5.25 0.31 0.75
5.25 0.33000001 0.31
5.25 0.33000001 0.70999998
5.25 0.34999999 0.33000001
5.25 0.34999999 0.34999999
5.25 0.34999999 0.67000002
5.25 0.34999999 0.69
5.25 0.37 0.37
5.25 0.37 0.38999999
5.25 0.37 0.41
5.25 0.37 0.61000001
5.25 0.37 0.63
5.25 0.37 0.64999998
5.25 0.38999999 0.43000001
5.25 0.38999999 0.44999999
5.25 0.38999999 0.47
5.25 0.38999999 0.49000001
5.25 0.38999999 0.50999999
5.25 0.38999999 0.52999997
5.25 0.38999999 0.55000001
5.25 0.38999999 0.56999999
5.25 0.38999999 0.58999997
5.27 -0.37 0.43000001
5.27 -0.37 0.44999999
5.27 -0.37 0.47
5.27 -0.37 0.49000001
5.27 -0.37 0.50999999
5.27 -0.37 0.52999997
5.27 -0.37 0.55000001
5.27 -0.37 0.56999999
5.27 -0.37 0.58999997
5.27 -0.34999999 0.37
5.27 -0.34999999 0.38999999
5.27 -0.34999999 0.41
5.27 -0.34999999 0.61000001
5.27 -0.34999999 0.63
5.27 -0.34999999 0.64999998
5.27 -0.33000001 0.33000001
5.27 -0.33000001 0.34999999
5.27 -0.33000001 0.67000002
5.27 -0.33000001 0.69
5.27 -0.31 0.31
5.27 -0.31 0.70999998
5.27 -0.28999999 0.27000001
5.27 -0.28999999 0.28999999
5.27 -0.28999999 0.73000002
5.27 -0.28999999 0.75
5.27 -0.27000001 0.25
5.27 -0.27000001 0.76999998
5.27 -0.25 0.23
5.27 -0.25 0.79000002
5.27 -0.23 0.20999999
5.27 -0.23 0.81
5.27 -0.20999999 0.20999999
5.27 -0.20999999 0.81
5.27 -0.19 0.19
5.27 -0.19 0.82999998
5.27 -0.17 0.17
5.27 -0.17 0.85000002
5.27 -0.15000001 0.17
5.27 -0.15000001 0.85000002
5.27 -0.13 0.15000001
5.27 -0.13 0.87
5.27 -0.11 0.15000001
5.27 -0.11 0.87
5.27 -0.090000004 0.15000001
5.27 -0.090000004 0.87
5.27 -0.07 0.13
5.27 -0.07 0.88999999
5.27 -0.050000001 0.13
5.27 -0.050000001 0.88999999
5.27 -0.029999999 0.13
5.27 -0.029999999 0.88999999
5.27 -0.0099999998 0.13
5.27 -0.0099999998 0.88999999
5.27 0.0099999998 0.13
5.27 0.0099999998 0.88999999
5.27 0.029999999 0.13
5.27 0.029999999 0.88999999
5.27 0.050000001 0.13
5.27 0.050000001 0.88999999
5.27 0.07 0.13
5.27 0.07 0.88999999
5.27 0.090000004 0.13
5.27 0.090000004 0.88999999
5.27 0.11 0.15000001
5.27 0.11 0.87
5.27 0.13 0.15000001
5.27 0.13 0.87
5.27 0.15000001 0.15000001
5.27 0.15000001 0.87
5.27 0.17 0.17
5.27 0.17 0.85000002
5.27 0.19 0.17
5.27 0.19 0.85000002
5.27 0.20999999 0.19
5.27 0.20999999 0.82999998
5.27 0.23 0.20999999
5.27 0.23 0.81
5.27 0.25 0.20999999
5.27 0.25 0.81
5.27 0.27000001 0.23
5.27 0.27000001 0.79000002
5.27 0.28999999 0.25
5.27 0.28999999 0.76999998
5.27 0.31 0.27000001
5.27 0.31 0.28999999
5.27 0.31 0.73000002
5.27 0.31 0.75
5.27 0.33000001 0.31
5.27 0.33000001 0.70999998
5.27 0.34999999 0.33000001
5.27 0.34999999 0.34999999
5.27 0.34999999 0.67000002
5.27 0.34999999 0.69
5.27 0.37 0.37
5.27 0.37 0.38999999
5.27 0.37 0.41
5.27 0.37 0.61000001
5.27 0.37 0.63
5.27 0.37 0.64999998
5.27 0.38999999 0.43000001
5.27 0.38999999 0.44999999
5.27 0.38999999 0.47
5.27 0.38999999 0.49000001
5.27 0.38999999 0.50999999
5.27 0.38999999 0.52999997
5.27 0.38999999 0.55000001
5.27 0.38999999 0.56999999
5.27 0.38999999 0.58999997
5.29 -0.37 0.43000001
5.29 -0.37 0.44999999
5.29 -0.37 0.47
5.29 -0.37 0.49000001
5.29 -0.37 0.50999999
5.29 -0.37 0.52999997
5.29 -0.37 0.55000001
5.29 -0.37 0.56999999
5.29 -0.37 0.58999997
5.29 -0.34999999 0.37
5.29 -0.34999999 0.38999999
5.29 -0.34999999 0.41
5.29 -0.34999999 0.61000001
5.29 -0.34999999 0.63
5.29 -0.34999999 0.64999998
5.29 -0.33000001 0.33000001
5.29 -0.33000001 0.34999999
5.29 -0.33000001 0.67000002
5.29 -0.33000001 0.69
5.29 -0.31 0.31
5.29 -0.31 0.70999998
5.29 -0.28999999 0.27000001
5.29 -0.28999999 0.28999999
5.29 -0.28999999 0.73000002
5.29 -0.28999999 0.75
5.29 -0.27000001 0.25
5.29 -0.27000001 0.76999998
5.29 -0.25 0.23
5.29 -0.25 0.79000002
5.29 -0.23 0.20999999
5.29 -0.23 0.81
5.29 -0.20999999 0.20999999
5.29 -0.20999999 0.81
5.29 -0.19 0.19
5.29 -0.19 0.82999998
5.29 -0.17 0.17
5.29 -0.17 0.85000002
5.29 -0.15000001 0.17
5.29 -0.15000001 0.85000002
5.29 -0.13 0.15000001
5.29 -0.13 0.87
5.29 -0.11 0.15000001
5.29 -0.11 0.87
5.29 -0.090000004 0.15000001
5.29 -0.090000004 0.87
5.29 -0.07 0.13
5.29 -0.07 0.88999999
5.29 -0.050000001 0.13
5.29 -0.050000001 0.88999999
5.29 -0.029999999 0.13
5.29 -0.029999999 0.88999999
5.29 -0.0099999998 0.13
5.29 -0.0099999998 0.88999999
5.29 0.0099999998 0.13
5.29 0.0099999998 0.88999999
5.29 0.029999999 0.13
5.29 0.029999999 0.88999999
5.29 0.050000001 0.13
5.29 0.050000001 0.88999999
5.29 0.07 0.13
5.29 0.07 0.88999999
5.29 0.090000004 0.13
5.29 0.090000004 0.88999999
5.29 0.11 0.15000001
5.29 0.11 0.87
5.29 0.13 0.15000001
5.29 0.13 0.87
5.29 0.15000001 0.15000001
5.29 0.15000001 0.87
5.29 0.17 0.17
5.29 0.17 0.85000002
5.29 0.19 0.17
5.29 0.19 0.85000002
5.29 0.20999999 0.19
5.29 0.20999999 0.82999998
5.29 0.23 0.20999999
5.29 0.23 0.81
5.29 0.25 0.20999999
5.29 0.25 0.81
5.29 0.27000001 0.23
5.29 0.27000001 0.79000002
5.29 0.28999999 0.25
5.29 0.28999999 0.76999998
5.29 0.31 0.27000001
5.29 0.31 0.28999999
5.29 0.31 0.73000002
5.29 0.31 0.75
5.29 0.33000001 0.31
5.29 0.33000001 0.70999998
5.29 0.34999999 0.33000001
5.29 0.34999999 0.34999999
5.29 0.34999999 0.67000002
5.29 0.34999999 0.69
5.29 0.37 0.37
5.29 0.37 0.38999999
5.29 0.37 0.41
5.29 0.37 0.61000001
5.29 0.37 0.63
5.29 0.37 0.64999998
5.29 0.38999999 0.43000001
5.29 0.38999999 0.44999999
5.29 0.38999999 0.47
5.29 0.38999999 0.49000001
5.29 0.38999999 0.50999999
5.29 0.38999999 0.52999997
5.29 0.38999999 0.55000001
5.29 0.38999999 0.56999999
5.29 0.38999999 0.58999997
5.3099999 -0.37 0.43000001
5.3099999 -0.37 0.44999999
5.3099999 -0.37 0.47
5.3099999 -0.37 0.49000001
5.3099999 -0.37 0.50999999
5.3099999 -0.37 0.52999997
5.3099999 -0.37 0.55000001
5.3099999 -0.37 0.56999999
5.3099999 -0.37 0.58999997
5.3099999 -0.34999999 0.37
5.3099999 -0.34999999 0.38999999
5.3099999 -0.34999999 0.41
5.3099999 -0.34999999 0.61000001
5.3099999 -0.34999999 0.63
5.3099999 -0.34999999 0.64999998
5.3099999 -0.33000001 0.33000001
5.3099999 -0.33000001 0.34999999
5.3099999 -0.33000001 0.67000002
5.3099999 -0.33000001 0.69
5.3099999 -0.31 0.31
5.3099999 -0.31 0.70999998
5.3099999 -0.28999999 0.27000001
5.3099999 -0.28999999 0.28999999
5.3099999 -0.28999999 0.73000002
5.3099999 -0.28999999 0.75
5.3099999 -0.27000001 0.25
5.3099999 -0.27000001 0.76999998
5.3099999 -0.25 0.23
5.3099999 -0.25 0.79000002
5.3099999 -0.23 0.20999999
5.3099999 -0.23 0.81
5.3099999 -0.20999999 0.20999999
5.3099999 -0.20999999 0.81
5.3099999 -0.19 0.19
5.3099999 -0.19 0.82999998
5.3099999 -0.17 0.17
5.3099999 -0.17 0.85000002
5.3099999 -0.15000001 0.17
5.3099999 -0.15000001 0.85000002
5.3099999 -0.13 0.15000001
5.3099999 -0.13 0.87
5.3099999 -0.11 0.15000001
5.3099999 -0.11 0.87
5.3099999 -0.090000004 0.15000001
5.3099999 -0.090000004 0.87
5.3099999 -0.07 0.13
5.3099999 -0.07 0.88999999
5.3099999 -0.050000001 0.13
5.3099999 -0.050000001 0.88999999
5.3099999 -0.029999999 0.13
5.3099999 -0.029999999 0.88999999
5.3099999 -0.0099999998 0.13
5.3099999 -0.0099999998 0.88999999
5.3099999 0.0099999998 0.13
5.3099999 0.0099999998 0.88999999
5.3099999 0.029999999 0.13
5.3099999 0.029999999 0.88999999
5.3099999 0.050000001 0.13
5.3099999 0.050000001 0.88999999
5.3099999 0.07 0.13
5.3099999 0.07 0.88999999
5.3099999 0.090000004 0.13
5.3099999 0.090000004 0.88999999
5.3099999 0.11 0.15000001
5.3099999 0.11 0.87
5.3099999 0.13 0.15000001
5.3099999 0.13 0.87
5.3099999 0.15000001 0.15000001
5.3099999 0.15000001 0.87
5.3099999 0.17 0.17
5.3099999 0.17 0.85000002
5.3099999 0.19 0.17
5.3099999 0.19 0.85000002
5.3099999 0.20999999 0.19
5.3099999 0.20999999 0.82999998
5.3099999 0.23 0.20999999
5.3099999 0.23 0.81
5.3099999 0.25 0.20999999
5.3099999 0.25 0.81
5.3099999 0.27000001 0.23
5.3099999 0.27000001 0.79000002
5.3099999 0.28999999 0.25
5.3099999 0.28999999 0.76999998
5.3099999 0.31 0.27000001
5.3099999 0.31 0.28999999
5.3099999 0.31 0.73000002
5.3099999 0.31 0.75
5.3099999 0.33000001 0.31
5.3099999 0.33000001 0.70999998
5.3099999 0.34999999 0.33000001
5.3099999 0.34999999 0.34999999
5.3099999 0.34999999 0.67000002
5.3099999 0.34999999 0.69
5.3099999 0.37 0.37
5.3099999 0.37 0.38999999
5.3099999 0.37 0.41
5.3099999 0.37 0.61000001
5.3099999 0.37 0.63
5.3099999 0.37 0.64999998
5.3099999 0.38999999 0.43000001
5.3099999 0.38999999 0.44999999
5.3099999 0.38999999 0.47
5.3099999 0.38999999 0.49000001
5.3099999 0.38999999 0.50999999
5.3099999 0.38999999 0.52999997
5.3099999 0.38999999 0.55000001
5.3099999 0.38999999 0.56999999
5.3099999 0.38999999 0.58999997
5.3299999 -0.37 0.43000001
5.3299999 -0.37 0.44999999
5.3299999 -0.37 0.47
5.3299999 -0.37 0.49000001
5.3299999 -0.37 0.50999999
5.3299999 -0.37 0.52999997
5.3299999 -0.37 0.55000001
5.3299999 -0.37 0.56999999
5.3299999 -0.37 0.58999997
5.3299999 -0.34999999 0.37
5.3299999 -0.34999999 0.38999999
5.3299999 -0.34999999 0.41
5.3299999 -0.34999999 0.61000001
5.3299999 -0.34999999 0.63
5.3299999 -0.34999999 0.64999998
5.3299999 -0.33000001 0.33000001
5.3299999 -0.33000001 0.34999999
5.3299999 -0.33000001 0.67000002
5.3299999 -0.33000001 0.69
5.3299999 -0.31 0.31
5.3299999 -0.31 0.70999998
5.3299999 -0.28999999 0.27000001
5.3299999 -0.28999999 0.28999999
5.3299999 -0.28999999 0.73000002
5.3299999 -0.28999999 0.75
5.3299999 -0.27000001 0.25
5.3299999 -0.27000001 0.76999998
5.3299999 -0.25 0.23
5.3299999 -0.25 0.79000002
5.3299999 -0.23 0.20999999
5.3299999 -0.23 0.81
5.3299999 -0.20999999 0.20999999
5.3299999 -0.20999999 0.81
5.3299999 -0.19 0.19
5.3299999 -0.19 0.82999998
5.3299999 -0.17 0.17
5.3299999 -0.17 0.85000002
5.3299999 -0.15000001 0.17
5.3299999 -0.15000001 0.85000002
5.3299999 -0.13 0.15000001
5.3299999 -0.13 0.87
5.3299999 -0.11 0.15000001
5.3299999 -0.11 0.87
5.3299999 -0.090000004 0.15000001
5.3299999 -0.090000004 0.87
5.3299999 -0.07 0.13
5.3299999 -0.07 0.88999999
5.3299999 -0.050000001 0.13
5.3299999 -0.050000001 0.88999999
5.3299999 -0.029999999 0.13
5.3299999 -0.029999999 0.88999999
5.3299999 -0.0099999998 0.13
5.3299999 -0.0099999998 0.88999999
5.3299999 0.0099999998 0.13
5.3299999 0.0099999998 0.88999999
5.3299999 0.029999999 0.13
5.3299999 0.029999999 0.88999999
5.3299999 0.050000001 0.13
5.3299999 0.050000001 0.88999999
5.3299999 0.07 0.13
5.3299999 0.07 0.88999999
5.3299999 0.090000004 0.13
5.3299999 0.090000004 0.88999999
5.3299999 0.11 0.15000001
5.3299999 0.11 0.87
5.3299999 0.13 0.15000001
5.3299999 0.13 0.87
5.3299999 0.15000001 0.15000001
5.3299999 0.15000001 0.87
5.3299999 0.17 0.17
5.3299999 0.17 0.85000002
5.3299999 0.19 0.17
5.3299999 0.19 0.85000002
5.3299999 0.20999999 0.19
5.3299999 0.20999999 0.82999998
5.3299999 0.23 0.20999999
5.3299999 0.23 0.81
5.3299999 0.25 0.20999999
5.3299999 0.25 0.81
5.3299999 0.27000001 0.23
5.3299999 0.27000001 0.79000002
5.3299999 0.28999999 0.25
5.3299999 0.28999999 0.76999998
5.3299999 0.31 0.27000001
5.3299999 0.31 0.28999999
5.3299999 0.31 0.73000002
5.3299999 0.31 0.75
5.3299999 0.33000001 0.31
5.3299999 0.33000001 0.70999998
5.3299999 0.34999999 0.33000001
5.3299999 0.34999999 0.34999999
5.3299999 0.34999999 0.67000002
5.3299999 0.34999999 0.69
5.3299999 0.37 0.37
5.3299999 0.37 0.38999999
5.3299999 0.37 0.41
5.3299999 0.37 0.61000001
5.3299999 0.37 0.63
5.3299999 0.37 0.64999998
5.3299999 0.38999999 0.43000001
5.3299999 0.38999999 0.44999999
5.3299999 0.38999999 0.47
5.3299999 0.38999999 0.49000001
5.3299999 0.38999999 0.50999999
5.3299999 0.38999999 0.52999997
5.3299999 0.38999999 0.55000001
5.3299999 0.38999999 0.56999999
5.3299999 0.38999999 0.58999997
5.3499999 -0.37 0.43000001
5.3499999 -0.37 0.44999999
5.3499999 -0.37 0.47
5.3499999 -0.37 0.49000001
5.3499999 -0.37 0.50999999
5.3499999 -0.37 0.52999997
5.3499999 -0.37 0.55000001
5.3499999 -0.37 0.56999999
5.3499999 -0.37 0.58999997
5.3499999 -0.34999999 0.37
5.3499999 -0.34999999 0.38999999
5.3499999 -0.34999999 0.41
5.3499999 -0.34999999 0.61000001
5.3499999 -0.34999999 0.63
5.3499999 -0.34999999 0.64999998
5.3499999 -0.33000001 0.33000001
5.3499999 -0.33000001 0.34999999
5.3499999 -0.33000001 0.67000002
5.3499999 -0.33000001 0.69
5.3499999 -0.31 0.31
5.3499999 -0.31 0.70999998
5.3499999 -0.28999999 0.27000001
5.3499999 -0.28999999 0.28999999
5.3499999 -0.28999999 0.73000002
5.3499999 -0.28999999 0.75
5.3499999 -0.27000001 0.25
5.3499999 -0.27000001 0.76999998
5.3499999 -0.25 0.23
5.3499999 -0.25 0.79000002
5.3499999 -0.23 0.20999999
5.3499999 -0.23 0.81
5.3499999 -0.20999999 0.20999999
5.3499999 -0.20999999 0.81
5.3499999 -0.19 0.19
5.3499999 -0.19 0.82999998
5.3499999 -0.17 0.17
5.3499999 -0.17 0.85000002
5.3499999 -0.15000001 0.17
5.3499999 -0.15000001 0.85000002
5.3499999 -0.13 0.15000001
5.3499999 -0.13 0.87
5.3499999 -0.11 0.15000001
5.3499999 -0.11 0.87
5.3499999 -0.090000004 0.15000001
5.3499999 -0.090000004 0.87
5.3499999 -0.07 0.13
5.3499999 -0.07 0.88999999
5.3499999 -0.050000001 0.13
5.3499999 -0.050000001 0.88999999
5.3499999 -0.029999999 0.13
5.3499999 -0.029999999 0.88999999
5.3499999 -0.0099999998 0.13
5.3499999 -0.0099999998 0.88999999
5.3499999 0.0099999998 0.13
5.3499999 0.0099999998 0.88999999
5.3499999 0.029999999 0.13
5.3499999 0.029999999 0.88999999
5.3499999 0.050000001 0.13
5.3499999 0.050000001 0.88999999
5.3499999 0.07 0.13
5.3499999 0.07 0.88999999
5.3499999 0.090000004 0.13
5.3499999 0.090000004 0.88999999
5.3499999 0.11 0.15000001
5.3499999 0.11 0.87
5.3499999 0.13 0.15000001
5.3499999 0.13 0.87
5.3499999 0.15000001 0.15000001
5.3499999 0.15000001 0.87
5.3499999 0.17 0.17
5.3499999 0.17 0.85000002
5.3499999 0.19 0.17
5.3499999 0.19 0.85000002
5.3499999 0.20999999 0.19
5.3499999 0.20999999 0.82999998
5.3499999 0.23 0.20999999
5.3499999 0.23 0.81
5.3499999 0.25 0.20999999
5.3499999 0.25 0.81
5.3499999 0.27000001 0.23
5.3499999 0.27000001 0.79000002
5.3499999 0.28999999 0.25
5.3499999 0.28999999 0.76999998
5.3499999 0.31 0.27000001
5.3499999 0.31 0.28999999
5.3499999 0.31 0.73000002
5.3499999 0.31 0.75
5.3499999 0.33000001 0.31
5.3499999 0.33000001 0.70999998
5.3499999 0.34999999 0.33000001
5.3499999 0.34999999 0.34999999
5.3499999 0.34999999 0.67000002
5.3499999 0.34999999 0.69
5.3499999 0.37 0.37
5.3499999 0.37 0.38999999
5.3499999 0.37 0.41
5.3499999 0.37 0.61000001
5.3499999 0.37 0.63
5.3499999 0.37 0.64999998
5.3499999 0.38999999 0.43000001
5.3499999 0.38999999 0.44999999
5.3499999 0.38999999 0.47
5.3499999 0.38999999 0.49000001
5.3499999 0.38999999 0.50999999
5.3499999 0.38999999 0.52999997
5.3499999 0.38999999 0.55000001
5.3499999 0.38999999 0.56999999
5.3499999 0.38999999 0.58999997
5.3699999 -0.37 0.43000001
5.3699999 -0.37 0.44999999
5.3699999 -0.37 0.47
5.3699999 -0.37 0.49000001
5.3699999 -0.37 0.50999999
5.3699999 -0.37 0.52999997
5.3699999 -0.37 0.55000001
5.3699999 -0.37 0.56999999
5.3699999 -0.37 0.58999997
5.3699999 -0.34999999 0.37
5.3699999 -0.34999999 0.38999999
5.3699999 -0.34999999 0.41
5.3699999 -0.34999999 0.61000001
5.3699999 -0.34999999 0.63
5.3699999 -0.34999999 0.64999998
5.3699999 -0.33000001 0.33000001
5.3699999 -0.33000001 0.34999999
5.3699999 -0.33000001 0.67000002
5.3699999 -0.33000001 0.69
5.3699999 -0.31 0.31
5.3699999 -0.31 0.70999998
5.3699999 -0.28999999 0.27000001
5.3699999 -0.28999999 0.28999999
5.3699999 -0.28999999 0.73000002
5.3699999 -0.28999999 0.75
5.3699999 -0.27000001 0.25
5.3699999 -0.27000001 0.76999998
5.3699999 -0.25 0.23
5.3699999 -0.25 0.79000002
5.3699999 -0.23 0.20999999
5.3699999 -0.23 0.81
5.3699999 -0.20999999 0.20999999
5.3699999 -0.20999999 0.81
5.3699999 -0.19 0.19
5.3699999 -0.19 0.82999998
5.3699999 -0.17 0.17
5.3699999 -0.17 0.85000002
5.3699999 -0.15000001 0.17
5.3699999 -0.15000001 0.85000002
5.3699999 -0.13 0.15000001
5.3699999 -0.13 0.87
5.3699999 -0.11 0.15000001
5.3699999 -0.11 0.87
5.3699999 -0.090000004 0.15000001
5.3699999 -0.090000004 0.87
5.3699999 -0.07 0.13
5.3699999 -0.07 0.88999999
5.3699999 -0.050000001 0.13
5.3699999 -0.050000001 0.88999999
5.3699999 -0.029999999 0.13
5.3699999 -0.029999999 0.88999999
5.3699999 -0.0099999998 0.13
5.3699999 -0.0099999998 0.88999999
5.3699999 0.0099999998 0.13
5.3699999 0.0099999998 0.88999999
5.3699999 0.029999999 0.13
5.3699999 0.029999999 0.88999999
5.3699999 0.050000001 0.13
5.3699999 0.050000001 0.88999999
5.3699999 0.07 0.13
5.3699999 0.07 0.88999999
5.3699999 0.090000004 0.13
5.3699999 0.090000004 0.88999999
5.3699999 0.11 0.15000001
5.3699999 0.11 0.87
5.3699999 0.13 0.15000001
5.3699999 0.13 0.87
5.3699999 0.15000001 0.15000001
5.3699999 0.15000001 0.87
5.3699999 0.17 0.17
5.3699999 0.17 0.85000002
5.3699999 0.19 0.17
5.3699999 0.19 0.85000002
5.3699999 0.20999999 0.19
5.3699999 0.20999999 0.82999998
5.3699999 0.23 0.20999999
5.3699999 0.23 0.81
5.3699999 0.25 0.20999999
5.3699999 0.25 0.81
5.3699999 0.27000001 0.23
5.3699999 0.27000001 0.79000002
5.3699999 0.28999999 0.25
5.3699999 0.28999999 0.76999998
5.3699999 0.31 0.27000001
5.3699999 0.31 0.28999999
5.3699999 0.31 0.73000002
5.3699999 0.31 0.75
5.3699999 0.33000001 0.31
5.3699999 0.33000001 0.70999998
5.3699999 0.34999999 0.33000001
5.3699999 0.34999999 0.34999999
5.3699999 0.34999999 0.67000002
5.3699999 0.34999999 0.69
5.3699999 0.37 0.37
5.3699999 0.37 0.38999999
5.3699999 0.37 0.41
5.3699999 0.37 0.61000001
5.3699999 0.37 0.63
5.3699999 0.37 0.64999998
5.3699999 0.38999999 0.43000001
5.3699999 0.38999999 0.44999999
5.3699999 0.38999999 0.47
5.3699999 0.38999999 0.49000001
5.3699999 0.38999999 0.50999999
5.3699999 0.38999999 0.52999997
5.3699999 0.38999999 0.55000001
5.3699999 0.38999999 0.56999999
5.3699999 0.38999999 0.58999997
5.3899999 -0.37 0.43000001
5.3899999 -0.37 0.44999999
5.3899999 -0.37 0.47
5.3899999 -0.37 0.49000001
5.3899999 -0.37 0.50999999
5.3899999 -0.37 0.52999997
5.3899999 -0.37 0.55000001
5.3899999 -0.37 0.56999999
5.3899999 -0.37 0.58999997
5.3899999 -0.34999999 0.37
5.3899999 -0.34999999 0.38999999
5.3899999 -0.34999999 0.41
5.3899999 -0.34999999 0.61000001
5.3899999 -0.34999999 0.63
5.3899999 -0.34999999 0.64999998
5.3899999 -0.33000001 0.33000001
5.3899999 -0.33000001 0.34999999
5.3899999 -0.33000001 0.67000002
5.3899999 -0.33000001 0.69
5.3899999 -0.31 0.31
5.3899999 -0.31 0.70999998
5.3899999 -0.28999999 0.27000001
5.3899999 -0.28999999 0.28999999
5.3899999 -0.28999999 0.73000002
5.3899999 -0.28999999 0.75
5.3899999 -0.27000001 0.25
5.3899999 -0.27000001 0.76999998
5.3899999 -0.25 0.23
5.3899999 -0.25 0.79000002
5.3899999 -0.23 0.20999999
5.3899999 -0.23 0.81
5.3899999 -0.20999999 0.20999999
5.3899999 -0.20999999 0.81
5.3899999 -0.19 0.19
5.3899999 -0.19 0.82999998
5.3899999 -0.17 0.17
5.3899999 -0.17 0.85000002
5.3899999 -0.15000001 0.17
5.3899999 -0.15000001 0.85000002
5.3899999 -0.13 0.15000001
5.3899999 -0.13 0.87
5.3899999 -0.11 0.15000001
5.3899999 -0.11 0.87
5.3899999 -0.090000004 0.15000001
5.3899999 -0.090000004 0.87
5.3899999 -0.07 0.13
5.3899999 -0.07 0.88999999
5.3899999 -0.050000001 0.13
5.3899999 -0.050000001 0.88999999
5.3899999 -0.029999999 0.13
5.3899999 -0.029999999 0.88999999
5.3899999 -0.0099999998 0.13
5.3899999 -0.0099999998 0.88999999
5.3899999 0.0099999998 0.13
5.3899999 0.0099999998 0.88999999
5.3899999 0.029999999 0.13
5.3899999 0.029999999 0.88999999
5.3899999 0.050000001 0.13
5.3899999 0.050000001 0.88999999
5.3899999 0.07 0.13
5.3899999 0.07 0.88999999
5.3899999 0.090000004 0.13
5.3899999 0.090000004 0.88999999
5.3899999 0.11 0.15000001
5.3899999 0.11 0.87
5.3899999 0.13 0.15000001
5.3899999 0.13 0.87
5.3899999 0.15000001 0.15000001
5.3899999 0.15000001 0.87
5.3899999 0.17 0.17
5.3899999 0.17 0.85000002
5.3899999 0.19 0.17
5.3899999 0.19 0.85000002
5.3899999 0.20999999 0.19
5.3899999 0.20999999 0.82999998
5.3899999 0.23 0.20999999
5.3899999 0.23 0.81
5.3899999 0.25 0.20999999
5.3899999 0.25 0.81
5.3899999 0.27000001 0.23
5.3899999 0.27000001 0.79000002
5.3899999 0.28999999 0.25
5.3899999 0.28999999 0.76999998
5.3899999 0.31 0.27000001
5.3899999 0.31 0.28999999
5.3899999 0.31 0.73000002
5.3899999 0.31 0.75
5.3899999 0.33000001 0.31
5.3899999 0.33000001 0.70999998
5.3899999 0.34999999 0.33000001
5.3899999 0.34999999 0.34999999
5.3899999 0.34999999 0.67000002
5.3899999 0.34999999 0.69
5.3899999 0.37 0.37
5.3899999 0.37 0.38999999
5.3899999 0.37 0.41
5.3899999 0.37 0.61000001
5.3899999 0.37 0.63
5.3899999 0.37 0.64999998
5.3899999 0.38999999 0.43000001
5.3899999 0.38999999 0.44999999
5.3899999 0.38999999 0.47
5.3899999 0.38999999 0.49000001
5.3899999 0.38999999 0.50999999
5.3899999 0.38999999 0.52999997
5.3899999 0.38999999 0.55000001
5.3899999 0.38999999 0.56999999
5.3899999 0.38999999 0.58999997
5.4099998 -0.37 0.41
5.4099998 -0.37 0.43000001
5.4099998 -0.37 0.44999999
5.4099998 -0.37 0.47
5.4099998 -0.37 0.49000001
5.4099998 -0.37 0.50999999
5.4099998 -0.37 0.52999997
5.4099998 -0.37 0.55000001
5.4099998 -0.37 0.56999999
5.4099998 -0.34999999 0.34999999
5.4099998 -0.34999999 0.37
5.4099998 -0.34999999 0.38999999
5.4099998 -0.34999999 0.58999997
5.4099998 -0.34999999 0.61000001
5.4099998 -0.34999999 0.63
5.4099998 -0.33000001 0.31
5.4099998 -0.33000001 0.33000001
5.4099998 -0.33000001 0.64999998
5.4099998 -0.33000001 0.67000002
5.4099998 -0.31 0.28999999
5.4099998 -0.31 0.69
5.4099998 -0.28999999 0.25
5.4099998 -0.28999999 0.27000001
5.4099998 -0.28999999 0.70999998
5.4099998 -0.28999999 0.73000002
5.4099998 -0.27000001 0.23
5.4099998 -0.27000001 0.75
5.4099998 -0.25 0.20999999
5.4099998 -0.25 0.76999998
5.4099998 -0.23 0.19
5.4099998 -0.23 0.79000002
5.4099998 -0.20999999 0.19
5.4099998 -0.20999999 0.79000002
5.4099998 -0.19 0.17
5.4099998 -0.19 0.81
5.4099998 -0.17 0.15000001
5.4099998 -0.17 0.82999998
5.4099998 -0.15000001 0.15000001
5.4099998 -0.15000001 0.82999998
5.4099998 -0.13 0.13
5.4099998 -0.13 0.85000002
5.4099998 -0.11 0.13
5.4099998 -0.11 0.85000002
5.4099998 -0.090000004 0.13
5.4099998 -0.090000004 0.85000002
5.4099998 -0.07 0.11
5.4099998 -0.07 0.87
5.4099998 -0.050000001 0.11
5.4099998 -0.050000001 0.87
5.4099998 -0.029999999 0.11
5.4099998 -0.029999999 0.87
5.4099998 -0.0099999998 0.11
5.4099998 -0.0099999998 0.87
5.4099998 0.0099999998 0.11
5.4099998 0.0099999998 0.87
5.4099998 0.029999999 0.11
5.4099998 0.029999999 0.87
5.4099998 0.050000001 0.11
5.4099998 0.050000001 0.87
5.4099998 0.07 0.11
5.4099998 0.07 0.87
5.4099998 0.090000004 0.11
5.4099998 0.090000004 0.87
5.4099998 0.11 0.13
5.4099998 0.11 0.85000002
5.4099998 0.13 0.13
5.4099998 0.13 0.85000002
5.4099998 0.15000001 0.13
5.4099998 0.15000001 0.85000002
5.4099998 0.17 0.15000001
5.4099998 0.17 0.82999998
5.4099998 0.19 0.15000001
5.4099998 0.19 0.82999998
5.4099998 0.20999999 0.17
5.4099998 0.20999999 0.81
5.4099998 0.23 0.19
5.4099998 0.23 0.79000002
5.4099998 0.25 0.19
5.4099998 0.25 0.79000002
5.4099998 0.27000001 0.20999999
5.4099998 0.27000001 0.76999998
5.4099998 0.28999999 0.23
5.4099998 0.28999999 0.75
5.4099998 0.31 0.25
5.4099998 0.31 0.27000001
5.4099998 0.31 0.70999998
5.4099998 0.31 0.73000002
5.4099998 0.33000001 0.28999999
5.4099998 0.33000001 0.69
5.4099998 0.34999999 0.31
5.4099998 0.34999999 0.33000001
5.4099998 0.34999999 0.64999998
5.4099998 0.34999999 0.67000002
5.4099998 0.37 0.34999999
5.4099998 0.37 0.37
5.4099998 0.37 0.38999999
5.4099998 0.37 0.58999997
5.4099998 0.37 0.61000001
5.4099998 0.37 0.63
5.4099998 0.38999999 0.41
5.4099998 0.38999999 0.43000001
5.4099998 0.38999999 0.44999999
5.4099998 0.38999999 0.47
5.4099998 0.38999999 0.49000001
5.4099998 0.38999999 0.50999999
5.4099998 0.38999999 0.52999997
5.4099998 0.38999999 0.55000001
5.4099998 0.38999999 0.56999999
5.4299998 -0.37 0.41
5.4299998 -0.37 0.43000001
5.4299998 -0.37 0.44999999
5.4299998 -0.37 0.47
5.4299998 -0.37 0.49000001
5.4299998 -0.37 0.50999999
5.4299998 -0.37 0.52999997
5.4299998 -0.37 0.55000001
5.4299998 -0.37 0.56999999
5.4299998 -0.34999999 0.34999999
5.4299998 -0.34999999 0.37
5.4299998 -0.34999999 0.38999999
5.4299998 -0.34999999 0.58999997
5.4299998 -0.34999999 0.61000001
5.4299998 -0.34999999 0.63
5.4299998 -0.33000001 0.31
5.4299998 -0.33000001 0.33000001
5.4299998 -0.33000001 0.64999998
5.4299998 -0.33000001 0.67000002
5.4299998 -0.31 0.28999999
5.4299998 -0.31 0.69
5.4299998 -0.28999999 0.25
5.4299998 -0.28999999 0.27000001
5.4299998 -0.28999999 0.70999998
5.4299998 -0.28999999 0.73000002
5.4299998 -0.27000001 0.23
5.4299998 -0.27000001 0.75
5.4299998 -0.25 0.20999999
5.4299998 -0.25 0.76999998
5.4299998 -0.23 0.19
5.4299998 -0.23 0.79000002
5.4299998 -0.20999999 0.19
5.4299998 -0.20999999 0.79000002
5.4299998 -0.19 0.17
5.4299998 -0.19 0.81
5.4299998 -0.17 0.15000001
5.4299998 -0.17 0.82999998
5.4299998 -0.15000001 0.15000001
5.4299998 -0.15000001 0.82999998
5.4299998 -0.13 0.13
5.4299998 -0.13 0.85000002
5.4299998 -0.11 0.13
5.4299998 -0.11 0.85000002
5.4299998 -0.090000004 0.13
5.4299998 -0.090000004 0.85000002
5.4299998 -0.07 0.11
5.4299998 -0.07 0.87
5.4299998 -0.050000001 0.11
5.4299998 -0.050000001 0.87
5.4299998 -0.029999999 0.11
5.4299998 -0.029999999 0.87
5.4299998 -0.0099999998 0.11
5.4299998 -0.0099999998 0.87
5.4299998 0.0099999998 0.11
5.4299998 0.0099999998 0.87
5.4299998 0.029999999 0.11
5.4299998 0.029999999 0.87
5.4299998 0.050000001 0.11
5.4299998 0.050000001 0.87
5.4299998 0.07 0.11
5.4299998 0.07 0.87
5.4299998 0.090000004 0.11
5.4299998 0.090000004 0.87
5.4299998 0.11 0.13
5.4299998 0.11 0.85000002
5.4299998 0.13 0.13
5.4299998 0.13 0.85000002
5.4299998 0.15000001 0.13
5.4299998 0.15000001 0.85000002
5.4299998 0.17 0.15000001
5.4299998 0.17 0.82999998
5.4299998 0.19 0.15000001
5.4299998 0.19 0.82999998
5.4299998 0.20999999 0.17
5.4299998 0.20999999 0.81
5.4299998 0.23 0.19
5.4299998 0.23 0.79000002
5.4299998 0.25 0.19
5.4299998 0.25 0.79000002
5.4299998 0.27000001 0.20999999
5.4299998 0.27000001 0.76999998
5.4299998 0.28999999 0.23
5.4299998 0.28999999 0.75
5.4299998 0.31 0.25
5.4299998 0.31 0.27000001
5.4299998 0.31 0.70999998
5.4299998 0.31 0.73000002
5.4299998 0.33000001 0.28999999
5.4299998 0.33000001 0.69
5.4299998 0.34999999 0.31
5.4299998 0.34999999 0.33000001
5.4299998 0.34999999 0.64999998
5.4299998 0.34999999 0.67000002
5.4299998 0.37 0.34999999
5.4299998 0.37 0.37
5.4299998 0.37 0.38999999
5.4299998 0.37 0.58999997
5.4299998 0.37 0.61000001
5.4299998 0.37 0.63
5.4299998 0.38999999 0.41
5.4299998 0.38999999 0.43000001
5.4299998 0.38999999 0.44999999
5.4299998 0.38999999 0.47
5.4299998 0.38999999 0.49000001
5.4299998 0.38999999 0.50999999
5.4299998 0.38999999 0.52999997
5.4299998 0.38999999 0.55000001
5.4299998 0.38999999 0.56999999
5.4499998 -0.37 0.41
5.4499998 -0.37 0.43000001
5.4499998 -0.37 0.44999999
5.4499998 -0.37 0.47
5.4499998 -0.37 0.49000001
5.4499998 -0.37 0.50999999
5.4499998 -0.37 0.52999997
5.4499998 -0.37 0.55000001
5.4499998 -0.37 0.56999999
5.4499998 -0.34999999 0.34999999
5.4499998 -0.34999999 0.37
5.4499998 -0.34999999 0.38999999
5.4499998 -0.34999999 0.58999997
5.4499998 -0.34999999 0.61000001
5.4499998 -0.34999999 0.63
5.4499998 -0.33000001 0.31
5.4499998 -0.33000001 0.33000001
5.4499998 -0.33000001 0.64999998
5.4499998 -0.33000001 0.67000002
5.4499998 -0.31 0.28999999
5.4499998 -0.31 0.69
5.4499998 -0.28999999 0.25
5.4499998 -0.28999999 0.27000001
5.4499998 -0.28999999 0.70999998
5.4499998 -0.28999999 0.73000002
5.4499998 -0.27000001 0.23
5.4499998 -0.27000001 0.75
5.4499998 -0.25 0.20999999
5.4499998 -0.25 0.76999998
5.4499998 -0.23 0.19
5.4499998 -0.23 0.79000002
5.4499998 -0.20999999 0.19
5.4499998 -0.20999999 0.79000002
5.4499998 -0.19 0.17
5.4499998 -0.19 0.81
5.4499998 -0.17 0.15000001
5.4499998 -0.17 0.82999998
5.4499998 -0.15000001 0.15000001
5.4499998 -0.15000001 0.82999998
5.4499998 -0.13 0.13
5.4499998 -0.13 0.85000002
5.4499998 -0.11 0.13
5.4499998 -0.11 0.85000002
5.4499998 -0.090000004 0.13
5.4499998 -0.090000004 0.85000002
5.4499998 -0.07 0.11
5.4499998 -0.07 0.87
5.4499998 -0.050000001 0.11
5.4499998 -0.050000001 0.87
5.4499998 -0.029999999 0.11
5.4499998 -0.029999999 0.87
5.4499998 -0.0099999998 0.11
5.4499998 -0.0099999998 0.87
5.4499998 0.0099999998 0.11
5.4499998 0.0099999998 0.87
5.4499998 0.029999999 0.11
5.4499998 0.029999999 0.87
5.4499998 0.050000001 0.11
5.4499998 0.050000001 0.87
5.4499998 0.07 0.11
5.4499998 0.07 0.87
5.4499998 0.090000004 0.11
5.4499998 0.090000004 0.87
5.4499998 0.11 0.13
5.4499998 0.11 0.85000002
5.4499998 0.13 0.13
5.4499998 0.13 0.85000002
5.4499998 0.15000001 0.13
5.4499998 0.15000001 0.85000002
5.4499998 0.17 0.15000001
5.4499998 0.17 0.82999998
5.4499998 0.19 0.15000001
5.4499998 0.19 0.82999998
5.4499998 0.20999999 0.17
5.4499998 0.20999999 0.81
5.4499998 0.23 0.19
5.4499998 0.23 0.79000002
5.4499998 0.25 0.19
5.4499998 0.25 0.79000002
5.4499998 0.27000001 0.20999999
5.4499998 0.27000001 0.76999998
5.4499998 0.28999999 0.23
5.4499998 0.28999999 0.75
5.4499998 0.31 0.25
5.4499998 0.31 0.27000001
5.4499998 0.31 0.70999998
5.4499998 0.31 0.73000002
5.4499998 0.33000001 0.28999999
5.4499998 0.33000001 0.69
5.4499998 0.34999999 0.31
5.4499998 0.34999999 0.33000001
5.4499998 0.34999999 0.64999998
5.4499998 0.34999999 0.67000002
5.4499998 0.37 0.34999999
5.4499998 0.37 0.37
5.4499998 0.37 0.38999999
5.4499998 0.37 0.58999997
5.4499998 0.37 0.61000001
5.4499998 0.37 0.63
5.4499998 0.38999999 0.41
5.4499998 0.38999999 0.43000001
5.4499998 0.38999999 0.44999999
5.4499998 0.38999999 0.47
5.4499998 0.38999999 0.49000001
5.4499998 0.38999999 0.50999999
5.4499998 0.38999999 0.52999997
5.4499998 0.38999999 0.55000001
5.4499998 0.38999999 0.56999999
5.4699998 -0.37 0.41
5.4699998 -0.37 0.43000001
5.4699998 -0.37 0.44999999
5.4699998 -0.37 0.47
5.4699998 -0.37 0.49000001
5.4699998 -0.37 0.50999999
5.4699998 -0.37 0.52999997
5.4699998 -0.37 0.55000001
5.4699998 -0.37 0.56999999
5.4699998 -0.34999999 0.34999999
5.4699998 -0.34999999 0.37
5.4699998 -0.34999999 0.38999999
5.4699998 -0.34999999 0.58999997
5.4699998 -0.34999999 0.61000001
5.4699998 -0.34999999 0.63
5.4699998 -0.33000001 0.31
5.4699998 -0.33000001 0.33000001
5.4699998 -0.33000001 0.64999998
5.4699998 -0.33000001 0.67000002
5.4699998 -0.31 0.28999999
5.4699998 -0.31 0.69
5.4699998 -0.28999999 0.25
5.4699998 -0.28999999 0.27000001
5.4699998 -0.28999999 0.70999998
5.4699998 -0.28999999 0.73000002
5.4699998 -0.27000001 0.23
5.4699998 -0.27000001 0.75
5.4699998 -0.25 0.20999999
5.4699998 -0.25 0.76999998
5.4699998 -0.23 0.19
5.4699998 -0.23 0.79000002
5.4699998 -0.20999999 0.19
5.4699998 -0.20999999 0.79000002
5.4699998 -0.19 0.17
5.4699998 -0.19 0.81
5.4699998 -0.17 0.15000001
5.4699998 -0.17 0.82999998
5.4699998 -0.15000001 0.15000001
5.4699998 -0.15000001 0.82999998
5.4699998 -0.13 0.13
5.4699998 -0.13 0.85000002
5.4699998 -0.11 0.13
5.4699998 -0.11 0.85000002
5.4699998 -0.090000004 0.13
5.4699998 -0.090000004 0.85000002
5.4699998 -0.07 0.11
5.4699998 -0.07 0.87
5.4699998 -0.050000001 0.11
5.4699998 -0.050000001 0.87
5.4699998 -0.029999999 0.11
5.4699998 -0.029999999 0.87
5.4699998 -0.0099999998 0.11
5.4699998 -0.0099999998 0.87
5.4699998 0.0099999998 0.11
5.4699998 0.0099999998 0.87
5.4699998 0.029999999 0.11
5.4699998 0.029999999 0.87
5.4699998 0.050000001 0.11
5.4699998 0.050000001 0.87
5.4699998 0.07 0.11
5.4699998 0.07 0.87
5.4699998 0.090000004 0.11
5.4699998 0.090000004 0.87
5.4699998 0.11 0.13
5.4699998 0.11 0.85000002
5.4699998 0.13 0.13
5.4699998 0.13 0.85000002
5.4699998 0.15000001 0.13
5.4699998 0.15000001 0.85000002
5.4699998 0.17 0.15000001
5.4699998 0.17 0.82999998
5.4699998 0.19 0.15000001
5.4699998 0.19 0.82999998
5.4699998 0.20999999 0.17
5.4699998 0.20999999 0.81
5.4699998 0.23 0.19
5.4699998 0.23 0.79000002
5.4699998 0.25 0.19
5.4699998 0.25 0.79000002
5.4699998 0.27000001 0.20999999
5.4699998 0.27000001 0.76999998
5.4699998 0.28999999 0.23
5.4699998 0.28999999 0.75
5.4699998 0.31 0.25
5.4699998 0.31 0.27000001
5.4699998 0.31 0.70999998
5.4699998 0.31 0.73000002
5.4699998 0.33000001 0.28999999
5.4699998 0.33000001 0.69
5.4699998 0.34999999 0.31
5.4699998 0.34999999 0.33000001
5.4699998 0.34999999 0.64999998
5.4699998 0.34999999 0.67000002
5.4699998 0.37 0.34999999
5.4699998 0.37 0.37
5.4699998 0.37 0.38999999
5.4699998 0.37 0.58999997
5.4699998 0.37 0.61000001
5.4699998 0.37 0.63
5.4699998 0.38999999 0.41
5.4699998 0.38999999 0.43000001
5.4699998 0.38999999 0.44999999
5.4699998 0.38999999 0.47
5.4699998 0.38999999 0.49000001
5.4699998 0.38999999 0.50999999
5.4699998 0.38999999 0.52999997
5.4699998 0.38999999 0.55000001
5.4699998 0.38999999 0.56999999
5.4899998 -0.37 0.41
5.4899998 -0.37 0.43000001
5.4899998 -0.37 0.44999999
5.4899998 -0.37 0.47
5.4899998 -0.37 0.49000001
5.4899998 -0.37 0.50999999
5.4899998 -0.37 0.52999997
5.4899998 -0.37 0.55000001
5.4899998 -0.37 0.56999999
5.4899998 -0.34999999 0.34999999
5.4899998 -0.34999999 0.37
5.4899998 -0.34999999 0.38999999
5.4899998 -0.34999999 0.58999997
5.4899998 -0.34999999 0.61000001
5.4899998 -0.34999999 0.63
5.4899998 -0.33000001 0.31
5.4899998 -0.33000001 0.33000001
5.4899998 -0.33000001 0.64999998
5.4899998 -0.33000001 0.67000002
5.4899998 -0.31 0.28999999
5.4899998 -0.31 0.69
5.4899998 -0.28999999 0.25
5.4899998 -0.28999999 0.27000001
5.4899998 -0.28999999 0.70999998
5.4899998 -0.28999999 0.73000002
5.4899998 -0.27000001 0.23
5.4899998 -0.27000001 0.75
5.4899998 -0.25 0.20999999
5.4899998 -0.25 0.76999998
5.4899998 -0.23 0.19
5.4899998 -0.23 0.79000002
5.4899998 -0.20999999 0.19
5.4899998 -0.20999999 0.79000002
5.4899998 -0.19 0.17
5.4899998 -0.19 0.81
5.4899998 -0.17 0.15000001
5.4899998 -0.17 0.82999998
5.4899998 -0.15000001 0.15000001
5.4899998 -0.15000001 0.82999998
5.4899998 -0.13 0.13
5.4899998 -0.13 0.85000002
5.4899998 -0.11 0.13
5.4899998 -0.11 0.85000002
5.4899998 -0.090000004 0.13
5.4899998 -0.090000004 0.85000002
5.4899998 -0.07 0.11
5.4899998 -0.07 0.87
5.4899998 -0.050000001 0.11
5.4899998 -0.050000001 0.87
5.4899998 -0.029999999 0.11
5.4899998 -0.029999999 0.87
5.4899998 -0.0099999998 0.11
5.4899998 -0.0099999998 0.87
5.4899998 0.0099999998 0.11
5.4899998 0.0099999998 0.87
5.4899998 0.029999999 0.11
5.4899998 0.029999999 0.87
5.4899998 0.050000001 0.11
5.4899998 0.050000001 0.87
5.4899998 0.07 0.11
5.4899998 0.07 0.87
5.4899998 0.090000004 0.11
5.4899998 0.090000004 0.87
5.4899998 0.11 0.13
5.4899998 0.11 0.85000002
5.4899998 0.13 0.13
5.4899998 0.13 0.85000002
5.4899998 0.15000001 0.13
5.4899998 0.15000001 0.85000002
5.4899998 0.17 0.15000001
5.4899998 0.17 0.82999998
5.4899998 0.19 0.15000001
5.4899998 0.19 0.82999998
5.4899998 0.20999999 0.17
5.4899998 0.20999999 0.81
5.4899998 0.23 0.19
5.4899998 0.23 0.79000002
5.4899998 0.25 0.19
5.4899998 0.25 0.79000002
5.4899998 0.27000001 0.20999999
5.4899998 0.27000001 0.76999998
5.4899998 0.28999999 0.23
5.4899998 0.28999999 0.75
5.4899998 0.31 0.25
5.4899998 0.31 0.27000001
5.4899998 0.31 0.70999998
5.4899998 0.31 0.73000002
5.4899998 0.33000001 0.28999999
5.4899998 0.33000001 0.69
5.4899998 0.34999999 0.31
5.4899998 0.34999999 0.33000001
5.4899998 0.34999999 0.64999998
5.4899998 0.34999999 0.67000002
5.4899998 0.37 0.34999999
5.4899998 0.37 0.37
5.4899998 0.37 0.38999999
5.4899998 0.37 0.58999997
5.4899998 0.37 0.61000001
5.4899998 0.37 0.63
5.4899998 0.38999999 0.41
5.4899998 0.38999999 0.43000001
5.4899998 0.38999999 0.44999999
5.4899998 0.38999999 0.47
5.4899998 0.38999999 0.49000001
5.4899998 0.38999999 0.50999999
5.4899998 0.38999999 0.52999997
5.4899998 0.38999999 0.55000001
5.4899998 0.38999999 0.56999999
5.5100002 -0.37 0.41
5.5100002 -0.37 0.43000001
5.5100002 -0.37 0.44999999
5.5100002 -0.37 0.47
5.5100002 -0.37 0.49000001
5.5100002 -0.37 0.50999999
5.5100002 -0.37 0.52999997
5.5100002 -0.37 0.55000001
5.5100002 -0.37 0.56999999
5.5100002 -0.34999999 0.34999999
5.5100002 -0.34999999 0.37
5.5100002 -0.34999999 0.38999999
5.5100002 -0.34999999 0.58999997
5.5100002 -0.34999999 0.61000001
5.5100002 -0.34999999 0.63
5.5100002 -0.33000001 0.31
5.5100002 -0.33000001 0.33000001
5.5100002 -0.33000001 0.64999998
5.5100002 -0.33000001 0.67000002
5.5100002 -0.31 0.28999999
5.5100002 -0.31 0.69
5.5100002 -0.28999999 0.25
5.5100002 -0.28999999 0.27000001
5.5100002 -0.28999999 0.70999998
5.5100002 -0.28999999 0.73000002
5.5100002 -0.27000001 0.23
5.5100002 -0.27000001 0.75
5.5100002 -0.25 0.20999999
5.5100002 -0.25 0.76999998
5.5100002 -0.23 0.19
5.5100002 -0.23 0.79000002
5.5100002 -0.20999999 0.19
5.5100002 -0.20999999 0.79000002
5.5100002 -0.19 0.17
5.5100002 -0.19 0.81
5.5100002 -0.17 0.15000001
5.5100002 -0.17 0.82999998
5.5100002 -0.15000001 0.15000001
5.5100002 -0.15000001 0.82999998
5.5100002 -0.13 0.13
5.5100002 -0.13 0.85000002
5.5100002 -0.11 0.13
5.5100002 -0.11 0.85000002
5.5100002 -0.090000004 0.13
5.5100002 -0.090000004 0.85000002
5.5100002 -0.07 0.11
5.5100002 -0.07 0.87
5.5100002 -0.050000001 0.11
5.5100002 -0.050000001 0.87
5.5100002 -0.029999999 0.11
5.5100002 -0.029999999 0.87
5.5100002 -0.0099999998 0.11
5.5100002 -0.0099999998 0.87
5.5100002 0.0099999998 0.11
5.5100002 0.0099999998 0.87
5.5100002 0.029999999 0.11
5.5100002 0.029999999 0.87
5.5100002 0.050000001 0.11
5.5100002 0.050000001 0.87
5.5100002 0.07 0.11
5.5100002 0.07 0.87
5.5100002 0.090000004 0.11
5.5100002 0.090000004 0.87
5.5100002 0.11 0.13
5.5100002 0.11 0.85000002
5.5100002 0.13 0.13
5.5100002 0.13 0.85000002
5.5100002 0.15000001 0.13
5.5100002 0.15000001 0.85000002
5.5100002 0.17 0.15000001
5.5100002 0.17 0.82999998
5.5100002 0.19 0.15000001
5.5100002 0.19 0.82999998
5.5100002 0.20999999 0.17
5.5100002 0.20999999 0.81
5.5100002 0.23 0.19
5.5100002 0.23 0.79000002
5.5100002 0.25 0.19
5.5100002 0.25 0.79000002
5.5100002 0.27000001 0.20999999
5.5100002 0.27000001 0.76999998
5.5100002 0.28999999 0.23
5.5100002 0.28999999 0.75
5.5100002 0.31 0.25
5.5100002 0.31 0.27000001
5.5100002 0.31 0.70999998
5.5100002 0.31 0.73000002
5.5100002 0.33000001 0.28999999
5.5100002 0.33000001 0.69
5.5100002 0.34999999 0.31
5.5100002 0.34999999 0.33000001
5.5100002 0.34999999 0.64999998
5.5100002 0.34999999 0.67000002
5.5100002 0.37 0.34999999
5.5100002 0.37 0.37
5.5100002 0.37 0.38999999
5.5100002 0.37 0.58999997
5.5100002 0.37 0.61000001
5.5100002 0.37 0.63
5.5100002 0.38999999 0.41
5.5100002 0.38999999 0.43000001
5.5100002 0.38999999 0.44999999
5.5100002 0.38999999 0.47
5.5100002 0.38999999 0.49000001
5.5100002 0.38999999 0.50999999
5.5100002 0.38999999 0.52999997
5.5100002 0.38999999 0.55000001
5.5100002 0.38999999 0.56999999
5.5300002 -0.37 0.41
5.5300002 -0.37 0.43000001
5.5300002 -0.37 0.44999999
5.5300002 -0.37 0.47
5.5300002 -0.37 0.49000001
5.5300002 -0.37 0.50999999
5.5300002 -0.37 0.52999997
5.5300002 -0.37 0.55000001
5.5300002 -0.37 0.56999999
5.5300002 -0.34999999 0.34999999
5.5300002 -0.34999999 0.37
5.5300002 -0.34999999 0.38999999
5.5300002 -0.34999999 0.58999997
5.5300002 -0.34999999 0.61000001
5.5300002 -0.34999999 0.63
5.5300002 -0.33000001 0.31
5.5300002 -0.33000001 0.33000001
5.5300002 -0.33000001 0.64999998
5.5300002 -0.33000001 0.67000002
5.5300002 -0.31 0.28999999
5.5300002 -0.31 0.69
5.5300002 -0.28999999 0.25
5.5300002 -0.28999999 0.27000001
5.5300002 -0.28999999 0.70999998
5.5300002 -0.28999999 0.73000002
5.5300002 -0.27000001 0.23
5.5300002 -0.27000001 0.75
5.5300002 -0.25 0.20999999
5.5300002 -0.25 0.76999998
5.5300002 -0.23 0.19
5.5300002 -0.23 0.79000002
5.5300002 -0.20999999 0.19
5.5300002 -0.20999999 0.79000002
5.5300002 -0.19 0.17
5.5300002 -0.19 0.81
5.5300002 -0.17 0.15000001
5.5300002 -0.17 0.82999998
5.5300002 -0.15000001 0.15000001
5.5300002 -0.15000001 0.82999998
5.5300002 -0.13 0.13
5.5300002 -0.13 0.85000002
5.5300002 -0.11 0.13
5.5300002 -0.11 0.85000002
5.5300002 -0.090000004 0.13
5.5300002 -0.090000004 0.85000002
5.5300002 -0.07 0.11
5.5300002 -0.07 0.87
5.5300002 -0.050000001 0.11
5.5300002 -0.050000001 0.87
5.5300002 -0.029999999 0.11
5.5300002 -0.029999999 0.87
5.5300002 -0.0099999998 0.11
5.5300002 -0.0099999998 0.87
5.5300002 0.0099999998 0.11
5.5300002 0.0099999998 0.87
5.5300002 0.029999999 0.11
5.5300002 0.029999999 0.87
5.5300002 0.050000001 0.11
5.5300002 0.050000001 0.87
5.5300002 0.07 0.11
5.5300002 0.07 0.87
5.5300002 0.090000004 0.11
5.5300002 0.090000004 0.87
5.5300002 0.11 0.13
5.5300002 0.11 0.85000002
5.5300002 0.13 0.13
5.5300002 0.13 0.85000002
5.5300002 0.15000001 0.13
5.5300002 0.15000001 0.85000002
5.5300002 0.17 0.15000001
5.5300002 0.17 0.82999998
5.5300002 0.19 0.15000001
5.5300002 0.19 0.82999998
5.5300002 0.20999999 0.17
5.5300002 0.20999999 0.81
5.5300002 0.23 0.19
5.5300002 0.23 0.79000002
5.5300002 0.25 0.19
5.5300002 0.25 0.79000002
5.5300002 0.27000001 0.20999999
5.5300002 0.27000001 0.76999998
5.5300002 0.28999999 0.23
5.5300002 0.28999999 0.75
5.5300002 0.31 0.25
5.5300002 0.31 0.27000001
5.5300002 0.31 0.70999998
5.5300002 0.31 0.73000002
5.5300002 0.33000001 0.28999999
5.5300002 0.33000001 0.69
5.5300002 0.34999999 0.31
5.5300002 0.34999999 0.33000001
5.5300002 0.34999999 0.64999998
5.5300002 0.34999999 0.67000002
5.5300002 0.37 0.34999999
5.5300002 0.37 0.37
5.5300002 0.37 0.38999999
5.5300002 0.37 0.58999997
5.5300002 0.37 0.61000001
5.5300002 0.37 0.63
5.5300002 0.38999999 0.41
5.5300002 0.38999999 0.43000001
5.5300002 0.38999999 0.44999999
5.5300002 0.38999999 0.47
5.5300002 0.38999999 0.49000001
5.5300002 0.38999999 0.50999999
5.5300002 0.38999999 0.52999997
5.5300002 0.38999999 0.55000001
5.5300002 0.38999999 0.56999999
5.5500002 -0.37 0.41
5.5500002 -0.37 0.43000001
5.5500002 -0.37 0.44999999
5.5500002 -0.37 0.47
5.5500002 -0.37 0.49000001
5.5500002 -0.37 0.50999999
5.5500002 -0.37 0.52999997
5.5500002 -0.37 0.55000001
5.5500002 -0.37 0.56999999
5.5500002 -0.34999999 0.34999999
5.5500002 -0.34999999 0.37
5.5500002 -0.34999999 0.38999999
5.5500002 -0.34999999 0.58999997
5.5500002 -0.34999999 0.61000001
5.5500002 -0.34999999 0.63
5.5500002 -0.33000001 0.31
5.5500002 -0.33000001 0.33000001
5.5500002 -0.33000001 0.64999998
5.5500002 -0.33000001 0.67000002
5.5500002 -0.31 0.28999999
5.5500002 -0.31 0.69
5.5500002 -0.28999999 0.25
5.5500002 -0.28999999 0.27000001
5.5500002 -0.28999999 0.70999998
5.5500002 -0.28999999 0.73000002
5.5500002 -0.27000001 0.23
5.5500002 -0.27000001 0.75
5.5500002 -0.25 0.20999999
5.5500002 -0.25 0.76999998
5.5500002 -0.23 0.19
5.5500002 -0.23 0.79000002
5.5500002 -0.20999999 0.19
5.5500002 -0.20999999 0.79000002
5.5500002 -0.19 0.17
5.5500002 -0.19 0.81
5.5500002 -0.17 0.15000001
5.5500002 -0.17 0.82999998
5.5500002 -0.15000001 0.15000001
5.5500002 -0.15000001 0.82999998
5.5500002 -0.13 0.13
5.5500002 -0.13 0.85000002
5.5500002 -0.11 0.13
5.5500002 -0.11 0.85000002
5.5500002 -0.090000004 0.13
5.5500002 -0.090000004 0.85000002
5.5500002 -0.07 0.11
5.5500002 -0.07 0.87
5.5500002 -0.050000001 0.11
5.5500002 -0.050000001 0.87
5.5500002 -0.029999999 0.11
5.5500002 -0.029999999 0.87
5.5500002 -0.0099999998 0.11
5.5500002 -0.0099999998 0.87
5.5500002 0.0099999998 0.11
5.5500002 0.0099999998 0.87
5.5500002 0.029999999 0.11
5.5500002 0.029999999 0.87
5.5500002 0.050000001 0.11
5.5500002 0.050000001 0.87
5.5500002 0.07 0.11
5.5500002 0.07 0.87
5.5500002 0.090000004 0.11
5.5500002 0.090000004 0.87
5.5500002 0.11 0.13
5.5500002 0.11 0.85000002
5.5500002 0.13 0.13
5.5500002 0.13 0.85000002
5.5500002 0.15000001 0.13
5.5500002 0.15000001 0.85000002
5.5500002 0.17 0.15000001
5.5500002 0.17 0.82999998
5.5500002 0.19 0.15000001
5.5500002 0.19 0.82999998
5.5500002 0.20999999 0.17
5.5500002 0.20999999 0.81
5.5500002 0.23 0.19
5.5500002 0.23 0.79000002
5.5500002 0.25 0.19
5.5500002 0.25 0.79000002
5.5500002 0.27000001 0.20999999
5.5500002 0.27000001 0.76999998
5.5500002 0.28999999 0.23
5.5500002 0.28999999 0.75
5.5500002 0.31 0.25
5.5500002 0.31 0.27000001
5.5500002 0.31 0.70999998
5.5500002 0.31 0.73000002
5.5500002 0.33000001 0.28999999
5.5500002 0.33000001 0.69
5.5500002 0.34999999 0.31
5.5500002 0.34999999 0.33000001
5.5500002 0.34999999 0.64999998
5.5500002 0.34999999 0.67000002
5.5500002 0.37 0.34999999
5.5500002 0.37 0.37
5.5500002 0.37 0.38999999
5.5500002 0.37 0.58999997
5.5500002 0.37 0.61000001
5.5500002 0.37 0.63
5.5500002 0.38999999 0.41
5.5500002 0.38999999 0.43000001
5.5500002 0.38999999 0.44999999
5.5500002 0.38999999 0.47
5.5500002 0.38999999 0.49000001
5.5500002 0.38999999 0.50999999
5.5500002 0.38999999 0.52999997
5.5500002 0.38999999 0.55000001
5.5500002 0.38999999 0.56999999
5.5700002 -0.37 0.41
5.5700002 -0.37 0.43000001
5.5700002 -0.37 0.44999999
5.5700002 -0.37 0.47
5.5700002 -0.37 0.49000001
5.5700002 -0.37 0.50999999
5.5700002 -0.37 0.52999997
5.5700002 -0.37 0.55000001
5.5700002 -0.37 0.56999999
5.5700002 -0.34999999 0.34999999
5.5700002 -0.34999999 0.37
5.5700002 -0.34999999 0.38999999
5.5700002 -0.34999999 0.58999997
5.5700002 -0.34999999 0.61000001
5.5700002 -0.34999999 0.63
5.5700002 -0.33000001 0.31
5.5700002 -0.33000001 0.33000001
5.5700002 -0.33000001 0.64999998
5.5700002 -0.33000001 0.67000002
5.5700002 -0.31 0.28999999
5.5700002 -0.31 0.69
5.5700002 -0.28999999 0.25
5.5700002 -0.28999999 0.27000001
5.5700002 -0.28999999 0.70999998
5.5700002 -0.28999999 0.73000002
5.5700002 -0.27000001 0.23
5.5700002 -0.27000001 0.75
5.5700002 -0.25 0.20999999
5.5700002 -0.25 0.76999998
5.5700002 -0.23 0.19
5.5700002 -0.23 0.79000002
5.5700002 -0.20999999 0.19
5.5700002 -0.20999999 0.79000002
5.5700002 -0.19 0.17
5.5700002 -0.19 0.81
5.5700002 -0.17 0.15000001
5.5700002 -0.17 0.82999998
5.5700002 -0.15000001 0.15000001
5.5700002 -0.15000001 0.82999998
5.5700002 -0.13 0.13
5.5700002 -0.13 0.85000002
5.5700002 -0.11 0.13
5.5700002 -0.11 0.85000002
5.5700002 -0.090000004 0.13
5.5700002 -0.090000004 0.85000002
5.5700002 -0.07 0.11
5.5700002 -0.07 0.87
5.5700002 -0.050000001 0.11
5.5700002 -0.050000001 0.87
5.5700002 -0.029999999 0.11
5.5700002 -0.029999999 0.87
5.5700002 -0.0099999998 0.11
5.5700002 -0.0099999998 0.87
5.5700002 0.0099999998 0.11
5.5700002 0.0099999998 0.87
5.5700002 0.029999999 0.11
5.5700002 0.029999999 0.87
5.5700002 0.050000001 0.11
5.5700002 0.050000001 0.87
5.5700002 0.07 0.11
5.5700002 0.07 0.87
5.5700002 0.090000004 0.11
5.5700002 0.090000004 0.87
5.5700002 0.11 0.13
5.5700002 0.11 0.85000002
5.5700002 0.13 0.13
