# .PCD v0.7 - Point Cloud Data file format
VERSION 0.7
FIELDS x y z
SIZE 4 4 4
TYPE F F F
COUNT 1 1 1
WIDTH 2282
HEIGHT 1
VIEWPOINT 0 0 0 1 0 0 0
POINTS 2282
DATA ascii
0.07 1.63 1.99
0.07 1.63 2.01
0.07 1.63 2.03
0.07 1.63 2.05
0.07 1.63 2.0699999
0.07 1.65 0.20999999
0.07 1.65 0.75
0.07 1.65 0.76999998
0.07 1.65 1.47
0.07 1.65 1.49
0.07 1.65 1.51
0.07 1.65 1.53
0.07 1.65 1.55
0.07 1.65 1.5700001
0.07 1.65 1.59
0.07 1.65 1.61
0.07 1.65 1.63
0.07 1.65 1.99
0.07 1.65 2.01
0.07 1.65 2.03
0.07 1.65 2.05
0.07 1.65 2.0699999
0.07 1.67 0.20999999
0.07 1.67 0.75
0.07 1.67 0.76999998
0.07 1.67 1.47
0.07 1.67 1.49
0.07 1.67 1.51
0.07 1.67 1.53
0.07 1.67 1.55
0.07 1.67 1.5700001
0.07 1.67 1.59
0.07 1.67 1.61
0.07 1.67 1.63
0.07 1.67 1.99
0.07 1.67 2.01
0.07 1.67 2.03
0.07 1.67 2.05
0.07 1.67 2.0699999
0.07 1.6900001 0.20999999
0.07 1.6900001 0.75
0.07 1.6900001 0.76999998
0.07 1.6900001 1.47
0.07 1.6900001 1.49
0.07 1.6900001 1.51
0.07 1.6900001 1.53
0.07 1.6900001 1.55
0.07 1.6900001 1.5700001
0.07 1.6900001 1.59
0.07 1.6900001 1.61
0.07 1.6900001 1.63
0.07 1.6900001 1.99
0.07 1.6900001 2.01
0.07 1.6900001 2.03
0.07 1.6900001 2.05
0.07 1.6900001 2.0699999
0.07 1.71 0.20999999
0.07 1.71 0.75
0.07 1.71 0.76999998
0.07 1.71 1.47
0.07 1.71 1.49
0.07 1.71 1.51
0.07 1.71 1.53
0.07 1.71 1.55
0.07 1.71 1.5700001
0.07 1.71 1.59
0.07 1.71 1.61
0.07 1.71 1.63
0.07 1.71 1.99
0.07 1.71 2.01
0.07 1.71 2.03
0.07 1.71 2.05
0.07 1.71 2.0699999
0.07 1.73 0.20999999
0.07 1.73 0.75
0.07 1.73 0.76999998
0.07 1.73 1.47
0.07 1.73 1.49
0.07 1.73 1.51
0.07 1.73 1.53
0.07 1.73 1.55
0.07 1.73 1.5700001
0.07 1.73 1.59
0.07 1.73 1.61
0.07 1.73 1.63
0.07 1.73 1.99
0.07 1.73 2.01
0.07 1.73 2.03
0.07 1.73 2.05
0.07 1.73 2.0699999
0.07 1.75 0.20999999
0.07 1.75 0.75
0.07 1.75 0.76999998
0.07 1.75 1.47
0.07 1.75 1.49
0.07 1.75 1.51
0.07 1.75 1.53
0.07 1.75 1.55
0.07 1.75 1.5700001
0.07 1.75 1.59
0.07 1.75 1.61
0.07 1.75 1.63
0.07 1.75 1.99
0.07 1.75 2.01
0.07 1.75 2.03
0.07 1.75 2.05
0.07 1.75 2.0699999
0.07 1.77 0.20999999
0.07 1.77 0.75
0.07 1.77 0.76999998
0.07 1.77 1.47
0.07 1.77 1.49
0.07 1.77 1.51
0.07 1.77 1.53
0.07 1.77 1.55
0.07 1.77 1.5700001
0.07 1.77 1.59
0.07 1.77 1.61
0.07 1.77 1.63
0.07 1.77 1.99
0.07 1.77 2.01
0.07 1.77 2.03
0.07 1.77 2.05
0.07 1.77 2.0699999
0.07 1.79 0.20999999
0.07 1.79 0.75
0.07 1.79 0.76999998
0.07 1.79 1.47
0.07 1.79 1.49
0.07 1.79 1.51
0.07 1.79 1.53
0.07 1.79 1.55
0.07 1.79 1.5700001
0.07 1.79 1.59
0.07 1.79 1.61
0.07 1.79 1.63
0.07 1.79 1.99
0.07 1.79 2.01
0.07 1.79 2.03
0.07 1.79 2.05
0.07 1.79 2.0699999
0.07 1.8099999 0.20999999
0.07 1.8099999 0.76999998
0.07 1.8099999 1.47
0.07 1.8099999 1.49
0.07 1.8099999 1.51
0.07 1.8099999 1.53
0.07 1.8099999 1.55
0.07 1.8099999 1.5700001
0.07 1.8099999 1.59
0.07 1.8099999 1.61
0.07 1.8099999 1.63
0.07 1.8099999 1.99
0.07 1.8099999 2.01
0.07 1.8099999 2.03
0.07 1.8099999 2.05
0.07 1.8099999 2.0699999
0.07 1.83 0.20999999
0.07 1.83 0.76999998
0.07 1.83 0.79000002
0.07 1.83 1.47
0.07 1.83 1.49
0.07 1.83 1.51
0.07 1.83 1.53
0.07 1.83 1.55
0.07 1.83 1.5700001
0.07 1.83 1.59
0.07 1.83 1.61
0.07 1.83 1.63
0.07 1.83 1.99
0.07 1.83 2.01
0.07 1.83 2.03
0.07 1.83 2.05
0.07 1.83 2.0699999
0.07 1.85 0.20999999
0.07 1.85 0.76999998
0.07 1.85 0.79000002
0.07 1.85 1.47
0.07 1.85 1.49
0.07 1.85 1.51
0.07 1.85 1.53
0.07 1.85 1.55
0.07 1.85 1.5700001
0.07 1.85 1.59
0.07 1.85 1.61
0.07 1.85 1.63
0.07 1.85 1.99
0.07 1.85 2.01
0.07 1.85 2.03
0.07 1.85 2.05
0.07 1.87 0.20999999
0.07 1.87 0.76999998
0.07 1.87 0.79000002
0.07 1.87 1.47
0.07 1.87 1.49
0.07 1.87 1.51
0.07 1.87 1.53
0.07 1.87 1.55
0.07 1.87 1.5700001
0.07 1.87 1.59
0.07 1.87 1.61
0.07 1.87 1.63
0.07 1.87 1.97
0.07 1.87 1.99
0.07 1.87 2.01
0.07 1.87 2.03
0.07 1.87 2.05
0.07 1.89 0.20999999
0.07 1.89 0.76999998
0.07 1.89 0.79000002
0.07 1.89 1.47
0.07 1.89 1.49
0.07 1.89 1.51
0.07 1.89 1.53
0.07 1.89 1.55
0.07 1.89 1.5700001
0.07 1.89 1.59
0.07 1.89 1.61
0.07 1.89 1.63
0.07 1.89 1.97
0.07 1.89 1.99
0.07 1.89 2.01
0.07 1.89 2.03
0.07 1.89 2.05
0.07 1.91 0.20999999
0.07 1.91 0.76999998
0.07 1.91 0.79000002
0.07 1.91 1.47
0.07 1.91 1.49
0.07 1.91 1.51
0.07 1.91 1.53
0.07 1.91 1.55
0.07 1.91 1.5700001
0.07 1.91 1.59
0.07 1.91 1.61
0.07 1.91 1.63
0.07 1.91 1.97
0.07 1.91 1.99
0.07 1.91 2.01
0.07 1.91 2.03
0.07 1.91 2.05
0.07 1.9299999 0.20999999
0.07 1.9299999 0.76999998
0.07 1.9299999 0.79000002
0.07 1.9299999 1.47
0.07 1.9299999 1.49
0.07 1.9299999 1.51
0.07 1.9299999 1.53
0.07 1.9299999 1.55
0.07 1.9299999 1.5700001
0.07 1.9299999 1.59
0.07 1.9299999 1.61
0.07 1.9299999 1.63
0.07 1.9299999 1.97
0.07 1.9299999 1.99
0.07 1.9299999 2.01
0.07 1.9299999 2.03
0.07 1.9299999 2.05
0.07 1.95 0.20999999
0.07 1.95 0.76999998
0.07 1.95 0.79000002
0.07 1.95 1.47
0.07 1.95 1.49
0.07 1.95 1.51
0.07 1.95 1.53
0.07 1.95 1.55
0.07 1.95 1.5700001
0.07 1.95 1.59
0.07 1.95 1.61
0.07 1.95 1.63
0.07 1.95 1.97
0.07 1.95 1.99
0.07 1.95 2.01
0.07 1.95 2.03
0.07 1.95 2.05
0.07 1.97 0.20999999
0.07 1.97 0.76999998
0.07 1.97 0.79000002
0.07 1.97 0.81
0.07 1.97 1.47
0.07 1.97 1.49
0.07 1.97 1.51
0.07 1.97 1.53
0.07 1.97 1.55
0.07 1.97 1.5700001
0.07 1.97 1.59
0.07 1.97 1.61
0.07 1.97 1.63
0.07 1.97 1.97
0.07 1.97 1.99
0.07 1.97 2.01
0.07 1.97 2.03
0.07 1.97 2.05
0.07 1.99 0.20999999
0.07 1.99 0.76999998
0.07 1.99 0.79000002
0.07 1.99 0.81
0.07 1.99 0.88999999
0.07 1.99 1.47
0.07 1.99 1.49
0.07 1.99 1.51
0.07 1.99 1.53
0.07 1.99 1.55
0.07 1.99 1.5700001
0.07 1.99 1.59
0.07 1.99 1.61
0.07 1.99 1.63
0.07 1.99 1.97
0.07 1.99 1.99
0.07 1.99 2.01
0.07 1.99 2.03
0.07 1.99 2.05
0.07 2.01 0.20999999
0.07 2.01 0.76999998
0.07 2.01 0.79000002
0.07 2.01 0.81
0.07 2.01 0.82999998
0.07 2.01 0.87
0.07 2.01 0.88999999
0.07 2.01 1.47
0.07 2.01 1.49
0.07 2.01 1.51
0.07 2.01 1.53
0.07 2.01 1.55
0.07 2.01 1.5700001
0.07 2.01 1.59
0.07 2.01 1.61
0.07 2.01 1.63
0.07 2.01 1.97
0.07 2.01 1.99
0.07 2.01 2.01
0.07 2.01 2.03
0.07 2.01 2.05
0.07 2.03 0.20999999
0.07 2.03 0.76999998
0.07 2.03 0.79000002
0.07 2.03 0.81
0.07 2.03 0.82999998
0.07 2.03 0.85000002
0.07 2.03 0.87
0.07 2.03 0.88999999
0.07 2.03 1.47
0.07 2.03 1.49
0.07 2.03 1.51
0.07 2.03 1.53
0.07 2.03 1.55
0.07 2.03 1.5700001
0.07 2.03 1.59
0.07 2.03 1.61
0.07 2.03 1.63
0.07 2.03 1.97
0.07 2.03 1.99
0.07 2.03 2.01
0.07 2.03 2.03
0.07 2.03 2.05
0.07 2.05 0.20999999
0.07 2.05 0.76999998
0.07 2.05 0.79000002
0.07 2.05 0.81
0.07 2.05 0.82999998
0.07 2.05 0.85000002
0.07 2.05 1.47
0.07 2.05 1.49
0.07 2.05 1.51
0.07 2.05 1.53
0.07 2.05 1.55
0.07 2.05 1.5700001
0.07 2.05 1.59
0.07 2.05 1.61
0.07 2.05 1.63
0.07 2.05 1.97
0.07 2.05 1.99
0.07 2.05 2.01
0.07 2.05 2.03
0.07 2.05 2.05
0.07 2.0699999 0.87
0.07 2.0699999 0.88999999
0.07 2.0699999 1.47
0.07 2.0699999 1.49
0.07 2.0699999 1.51
0.07 2.0699999 1.53
0.07 2.0699999 1.55
0.07 2.0699999 1.5700001
0.07 2.0699999 1.59
0.07 2.0699999 1.61
0.07 2.0699999 1.63
0.07 2.0699999 1.97
0.07 2.0699999 1.99
0.07 2.0699999 2.01
0.07 2.0699999 2.03
0.07 2.0699999 2.05
0.07 2.0899999 0.20999999
0.07 2.0899999 0.23
0.07 2.0899999 0.25
0.07 2.0899999 0.27000001
0.07 2.0899999 0.28999999
0.07 2.0899999 0.31
0.07 2.0899999 0.33000001
0.07 2.0899999 0.34999999
0.07 2.0899999 0.37
0.07 2.0899999 0.38999999
0.07 2.0899999 0.41
0.07 2.0899999 0.43000001
0.07 2.0899999 0.44999999
0.07 2.0899999 0.47
0.07 2.0899999 0.49000001
0.07 2.0899999 0.50999999
0.07 2.0899999 0.52999997
0.07 2.0899999 0.55000001
0.07 2.0899999 0.56999999
0.07 2.0899999 0.58999997
0.07 2.0899999 0.61000001
0.07 2.0899999 0.63
0.07 2.0899999 0.64999998
0.07 2.0899999 0.67000002
0.07 2.0899999 0.69
0.07 2.0899999 0.70999998
0.07 2.0899999 0.73000002
0.07 2.0899999 0.75
0.07 2.0899999 0.76999998
0.07 2.0899999 0.79000002
0.07 2.0899999 0.81
0.07 2.0899999 0.82999998
0.07 2.0899999 0.85000002
0.07 2.0899999 1.47
0.07 2.0899999 1.49
0.07 2.0899999 1.51
0.07 2.0899999 1.53
0.07 2.0899999 1.55
0.07 2.0899999 1.5700001
0.07 2.0899999 1.59
0.07 2.0899999 1.61
0.07 2.0899999 1.63
0.07 2.0899999 1.97
0.07 2.1099999 1.47
0.07 2.1099999 1.49
0.07 2.1099999 1.51
0.07 2.1099999 1.53
0.07 2.1099999 1.55
0.07 2.1099999 1.5700001
0.07 2.1099999 1.59
0.07 2.1099999 1.61
0.07 2.1099999 1.63
0.07 2.1099999 1.65
0.07 2.1099999 1.67
0.07 2.1099999 1.6900001
0.07 2.1099999 1.71
0.07 2.1099999 1.73
0.07 2.1099999 1.75
0.07 2.1099999 1.77
0.07 2.1099999 1.79
0.07 2.1099999 1.8099999
0.07 2.1099999 1.83
0.07 2.1099999 1.85
0.07 2.1099999 1.87
0.07 2.1099999 1.89
0.07 2.1099999 1.91
0.07 2.1099999 1.9299999
0.07 2.1099999 1.95
0.07 2.1099999 1.97
0.07 2.1099999 1.99
0.07 2.1099999 2.01
0.07 2.1099999 2.03
0.07 2.1099999 2.05
0.090000004 -1.95 0.23
0.090000004 -1.95 0.25
0.090000004 -1.95 0.27000001
0.090000004 -1.95 0.28999999
0.090000004 -1.95 0.31
0.090000004 -1.95 0.33000001
0.090000004 -1.95 0.34999999
0.090000004 -1.95 0.37
0.090000004 -1.95 0.38999999
0.090000004 -1.95 0.41
0.090000004 -1.95 0.43000001
0.090000004 -1.95 0.44999999
0.090000004 -1.95 0.47
0.090000004 -1.95 0.49000001
0.090000004 -1.95 0.50999999
0.090000004 -1.95 0.52999997
0.090000004 -1.95 0.55000001
0.090000004 -1.95 0.56999999
0.090000004 -1.95 0.58999997
0.090000004 -1.95 0.61000001
0.090000004 -1.95 0.63
0.090000004 -1.95 0.64999998
0.090000004 -1.95 0.67000002
0.090000004 -1.95 0.69
0.090000004 -1.95 0.70999998
0.090000004 -1.95 0.73000002
0.090000004 -1.95 0.75
0.090000004 -1.91 0.23
0.090000004 -1.91 0.75
0.090000004 -1.89 0.23
0.090000004 -1.89 0.75
0.090000004 -1.87 0.23
0.090000004 -1.87 0.75
0.090000004 -1.85 0.23
0.090000004 -1.85 0.75
0.090000004 -1.83 0.23
0.090000004 -1.83 0.75
0.090000004 -1.8099999 0.23
0.090000004 -1.8099999 0.75
0.090000004 -1.79 0.23
0.090000004 -1.79 0.75
0.090000004 -1.77 0.23
0.090000004 -1.77 0.75
0.090000004 -1.75 0.23
0.090000004 -1.75 0.75
0.090000004 -1.73 0.23
0.090000004 -1.73 0.75
0.090000004 -1.71 0.23
0.090000004 -1.71 0.75
0.090000004 -1.6900001 0.23
0.090000004 -1.6900001 0.75
0.090000004 -1.67 0.23
0.090000004 -1.67 0.75
0.090000004 -1.65 0.23
0.090000004 -1.65 0.75
0.090000004 -1.63 0.23
0.090000004 -1.63 0.75
0.090000004 -1.61 0.23
0.090000004 -1.61 0.75
0.090000004 -1.59 0.23
0.090000004 -1.59 0.75
0.090000004 -1.5700001 0.23
0.090000004 -1.5700001 0.75
0.090000004 -1.55 0.23
0.090000004 -1.55 0.75
0.090000004 -1.53 0.23
0.090000004 -1.53 0.75
0.090000004 -1.51 0.23
0.090000004 -1.51 0.75
0.090000004 -1.49 0.23
0.090000004 -1.49 0.75
0.090000004 -1.47 0.23
0.090000004 -1.47 0.75
0.090000004 -1.45 0.23
0.090000004 -1.45 0.75
0.090000004 -1.4299999 0.23
0.090000004 -1.4299999 0.75
0.090000004 -1.41 0.23
0.090000004 -1.41 0.75
0.090000004 -1.39 0.23
0.090000004 -1.39 0.75
0.090000004 -1.37 0.23
0.090000004 -1.37 0.75
0.090000004 -1.35 0.23
0.090000004 -1.35 0.75
0.090000004 -1.33 0.23
0.090000004 -1.33 0.75
0.090000004 -1.3099999 0.23
0.090000004 -1.3099999 0.75
0.090000004 -1.29 0.23
0.090000004 -1.29 0.75
0.090000004 -1.27 0.23
0.090000004 -1.27 0.75
0.090000004 -1.25 0.23
0.090000004 -1.25 0.75
0.090000004 -1.23 0.23
0.090000004 -1.23 0.25
0.090000004 -1.23 0.27000001
0.090000004 -1.23 0.28999999
0.090000004 -1.23 0.31
0.090000004 -1.23 0.33000001
0.090000004 -1.23 0.34999999
0.090000004 -1.23 0.37
0.090000004 -1.23 0.38999999
0.090000004 -1.23 0.41
0.090000004 -1.23 0.43000001
0.090000004 -1.23 0.44999999
0.090000004 -1.23 0.47
0.090000004 -1.23 0.49000001
0.090000004 -1.23 0.50999999
0.090000004 -1.23 0.52999997
0.090000004 -1.23 0.55000001
0.090000004 -1.23 0.56999999
0.090000004 -1.23 0.58999997
0.090000004 -1.23 0.61000001
0.090000004 -1.23 0.63
0.090000004 -1.23 0.64999998
0.090000004 -1.23 0.67000002
0.090000004 -1.23 0.69
0.090000004 -1.23 0.70999998
0.090000004 -1.23 0.73000002
0.090000004 1.37 0.20999999
0.090000004 1.37 0.23
0.090000004 1.37 0.25
0.090000004 1.37 0.27000001
0.090000004 1.37 0.28999999
0.090000004 1.37 0.31
0.090000004 1.37 0.33000001
0.090000004 1.37 0.34999999
0.090000004 1.37 0.37
0.090000004 1.37 0.38999999
0.090000004 1.37 0.41
0.090000004 1.37 0.43000001
0.090000004 1.37 0.44999999
0.090000004 1.37 0.47
0.090000004 1.37 0.49000001
0.090000004 1.37 0.50999999
0.090000004 1.37 0.52999997
0.090000004 1.37 0.55000001
0.090000004 1.37 0.56999999
0.090000004 1.37 0.58999997
0.090000004 1.37 0.61000001
0.090000004 1.37 0.63
0.090000004 1.37 0.64999998
0.090000004 1.37 0.67000002
0.090000004 1.37 0.69
0.090000004 1.37 0.70999998
0.090000004 1.37 0.73000002
0.090000004 1.37 0.75
0.090000004 1.39 0.20999999
0.090000004 1.39 0.76999998
0.090000004 1.39 0.79000002
0.090000004 1.39 1.3099999
0.090000004 1.39 1.33
0.090000004 1.39 1.35
0.090000004 1.39 1.37
0.090000004 1.39 1.39
0.090000004 1.39 1.41
0.090000004 1.39 1.4299999
0.090000004 1.39 1.45
0.090000004 1.39 1.47
0.090000004 1.39 1.49
0.090000004 1.39 1.51
0.090000004 1.39 1.53
0.090000004 1.39 1.55
0.090000004 1.39 1.5700001
0.090000004 1.39 1.59
0.090000004 1.39 1.61
0.090000004 1.39 1.63
0.090000004 1.39 1.65
0.090000004 1.39 1.67
0.090000004 1.39 1.6900001
0.090000004 1.39 1.71
0.090000004 1.39 1.73
0.090000004 1.39 1.75
0.090000004 1.39 1.77
0.090000004 1.39 1.79
0.090000004 1.39 1.8099999
0.090000004 1.39 1.83
0.090000004 1.39 1.85
0.090000004 1.39 1.87
0.090000004 1.39 1.89
0.090000004 1.39 1.91
0.090000004 1.39 1.9299999
0.090000004 1.39 1.95
0.090000004 1.39 1.97
0.090000004 1.39 1.99
0.090000004 1.39 2.01
0.090000004 1.39 2.03
0.090000004 1.39 2.05
0.090000004 1.39 2.0699999
0.090000004 1.41 0.20999999
0.090000004 1.41 0.76999998
0.090000004 1.41 0.79000002
0.090000004 1.41 2.0899999
0.090000004 1.41 2.1099999
0.090000004 1.41 2.1300001
0.090000004 1.4299999 0.20999999
0.090000004 1.4299999 0.76999998
0.090000004 1.4299999 0.79000002
0.090000004 1.4299999 1.3099999
0.090000004 1.4299999 1.33
0.090000004 1.4299999 1.35
0.090000004 1.4299999 1.37
0.090000004 1.4299999 1.39
0.090000004 1.4299999 1.41
0.090000004 1.4299999 1.4299999
0.090000004 1.4299999 1.45
0.090000004 1.4299999 2.0899999
0.090000004 1.4299999 2.1099999
0.090000004 1.4299999 2.1300001
0.090000004 1.45 0.20999999
0.090000004 1.45 0.76999998
0.090000004 1.45 0.79000002
0.090000004 1.45 1.3099999
0.090000004 1.45 1.33
0.090000004 1.45 1.35
0.090000004 1.45 1.37
0.090000004 1.45 1.39
0.090000004 1.45 1.41
0.090000004 1.45 1.4299999
0.090000004 1.45 1.45
0.090000004 1.45 2.0899999
0.090000004 1.45 2.1099999
0.090000004 1.45 2.1300001
0.090000004 1.47 0.20999999
0.090000004 1.47 0.76999998
0.090000004 1.47 0.79000002
0.090000004 1.47 1.3099999
0.090000004 1.47 1.33
0.090000004 1.47 1.35
0.090000004 1.47 1.37
0.090000004 1.47 1.39
0.090000004 1.47 1.41
0.090000004 1.47 1.4299999
0.090000004 1.47 1.45
0.090000004 1.47 2.0899999
0.090000004 1.47 2.1099999
0.090000004 1.47 2.1300001
0.090000004 1.49 0.20999999
0.090000004 1.49 0.76999998
0.090000004 1.49 0.79000002
0.090000004 1.49 1.3099999
0.090000004 1.49 1.33
0.090000004 1.49 1.35
0.090000004 1.49 1.37
0.090000004 1.49 1.39
0.090000004 1.49 1.41
0.090000004 1.49 1.4299999
0.090000004 1.49 1.45
0.090000004 1.49 2.0899999
0.090000004 1.49 2.1099999
0.090000004 1.49 2.1300001
0.090000004 1.51 0.20999999
0.090000004 1.51 0.76999998
0.090000004 1.51 0.79000002
0.090000004 1.51 1.3099999
0.090000004 1.51 1.33
0.090000004 1.51 1.35
0.090000004 1.51 1.37
0.090000004 1.51 1.39
0.090000004 1.51 1.41
0.090000004 1.51 1.4299999
0.090000004 1.51 1.45
0.090000004 1.51 2.0899999
0.090000004 1.51 2.1099999
0.090000004 1.51 2.1300001
0.090000004 1.53 0.20999999
0.090000004 1.53 0.76999998
0.090000004 1.53 0.79000002
0.090000004 1.53 1.3099999
0.090000004 1.53 1.33
0.090000004 1.53 1.35
0.090000004 1.53 1.37
0.090000004 1.53 1.39
0.090000004 1.53 1.41
0.090000004 1.53 1.4299999
0.090000004 1.53 1.45
0.090000004 1.53 2.0899999
0.090000004 1.53 2.1099999
0.090000004 1.53 2.1300001
0.090000004 1.55 0.20999999
0.090000004 1.55 0.76999998
0.090000004 1.55 0.79000002
0.090000004 1.55 1.3099999
0.090000004 1.55 1.33
0.090000004 1.55 1.35
0.090000004 1.55 1.37
0.090000004 1.55 1.39
0.090000004 1.55 1.41
0.090000004 1.55 1.4299999
0.090000004 1.55 1.45
0.090000004 1.55 2.0899999
0.090000004 1.55 2.1099999
0.090000004 1.55 2.1300001
0.090000004 1.5700001 0.20999999
0.090000004 1.5700001 0.79000002
0.090000004 1.5700001 1.3099999
0.090000004 1.5700001 1.33
0.090000004 1.5700001 1.35
0.090000004 1.5700001 1.37
0.090000004 1.5700001 1.39
0.090000004 1.5700001 1.41
0.090000004 1.5700001 1.4299999
0.090000004 1.5700001 1.45
0.090000004 1.5700001 2.0899999
0.090000004 1.5700001 2.1099999
0.090000004 1.5700001 2.1300001
0.090000004 1.59 0.20999999
0.090000004 1.59 0.79000002
0.090000004 1.59 1.3099999
0.090000004 1.59 1.33
0.090000004 1.59 1.35
0.090000004 1.59 1.37
0.090000004 1.59 1.39
0.090000004 1.59 1.41
0.090000004 1.59 1.4299999
0.090000004 1.59 1.45
0.090000004 1.59 2.0899999
0.090000004 1.59 2.1099999
0.090000004 1.59 2.1300001
0.090000004 1.61 0.20999999
0.090000004 1.61 0.79000002
0.090000004 1.61 0.81
0.090000004 1.61 1.3099999
0.090000004 1.61 1.33
0.090000004 1.61 1.35
0.090000004 1.61 1.37
0.090000004 1.61 1.39
0.090000004 1.61 1.41
0.090000004 1.61 1.4299999
0.090000004 1.61 1.45
0.090000004 1.61 2.0899999
0.090000004 1.61 2.1099999
0.090000004 1.61 2.1300001
0.090000004 1.63 0.20999999
0.090000004 1.63 0.79000002
0.090000004 1.63 0.81
0.090000004 1.63 1.3099999
0.090000004 1.63 1.33
0.090000004 1.63 1.35
0.090000004 1.63 1.37
0.090000004 1.63 1.39
0.090000004 1.63 1.41
0.090000004 1.63 1.4299999
0.090000004 1.63 1.45
0.090000004 1.63 2.0899999
0.090000004 1.63 2.1099999
0.090000004 1.63 2.1300001
0.090000004 1.65 0.20999999
0.090000004 1.65 0.79000002
0.090000004 1.65 0.81
0.090000004 1.65 1.3099999
0.090000004 1.65 1.33
0.090000004 1.65 1.35
0.090000004 1.65 1.37
0.090000004 1.65 1.39
0.090000004 1.65 1.41
0.090000004 1.65 1.4299999
0.090000004 1.65 1.45
0.090000004 1.65 2.0899999
0.090000004 1.65 2.1099999
0.090000004 1.65 2.1300001
0.090000004 1.67 0.20999999
0.090000004 1.67 0.79000002
0.090000004 1.67 0.81
0.090000004 1.67 1.3099999
0.090000004 1.67 1.33
0.090000004 1.67 1.35
0.090000004 1.67 1.37
0.090000004 1.67 1.39
0.090000004 1.67 1.41
0.090000004 1.67 1.4299999
0.090000004 1.67 1.45
0.090000004 1.67 2.0899999
0.090000004 1.67 2.1099999
0.090000004 1.67 2.1300001
0.090000004 1.6900001 0.20999999
0.090000004 1.6900001 0.79000002
0.090000004 1.6900001 0.81
0.090000004 1.6900001 1.3099999
0.090000004 1.6900001 1.33
0.090000004 1.6900001 1.35
0.090000004 1.6900001 1.37
0.090000004 1.6900001 1.39
0.090000004 1.6900001 1.41
0.090000004 1.6900001 1.4299999
0.090000004 1.6900001 1.45
0.090000004 1.6900001 2.0899999
0.090000004 1.6900001 2.1099999
0.090000004 1.6900001 2.1300001
0.090000004 1.71 0.20999999
0.090000004 1.71 0.79000002
0.090000004 1.71 0.81
0.090000004 1.71 0.82999998
0.090000004 1.71 1.3099999
0.090000004 1.71 1.33
0.090000004 1.71 1.35
0.090000004 1.71 1.37
0.090000004 1.71 1.39
0.090000004 1.71 1.41
0.090000004 1.71 1.4299999
0.090000004 1.71 1.45
0.090000004 1.71 2.0899999
0.090000004 1.71 2.1099999
0.090000004 1.71 2.1300001
0.090000004 1.73 0.20999999
0.090000004 1.73 0.79000002
0.090000004 1.73 0.81
0.090000004 1.73 0.82999998
0.090000004 1.73 1.3099999
0.090000004 1.73 1.33
0.090000004 1.73 1.35
0.090000004 1.73 1.37
0.090000004 1.73 1.39
0.090000004 1.73 1.41
0.090000004 1.73 1.4299999
0.090000004 1.73 1.45
0.090000004 1.73 2.0899999
0.090000004 1.73 2.1099999
0.090000004 1.73 2.1300001
0.090000004 1.75 0.20999999
0.090000004 1.75 0.79000002
0.090000004 1.75 0.81
0.090000004 1.75 0.82999998
0.090000004 1.75 1.3099999
0.090000004 1.75 1.33
0.090000004 1.75 1.35
0.090000004 1.75 1.37
0.090000004 1.75 1.39
0.090000004 1.75 1.41
0.090000004 1.75 1.4299999
0.090000004 1.75 1.45
0.090000004 1.75 2.0899999
0.090000004 1.75 2.1099999
0.090000004 1.75 2.1300001
0.090000004 1.77 0.20999999
0.090000004 1.77 0.79000002
0.090000004 1.77 0.81
0.090000004 1.77 0.82999998
0.090000004 1.77 1.3099999
0.090000004 1.77 1.33
0.090000004 1.77 1.35
0.090000004 1.77 1.37
0.090000004 1.77 1.39
0.090000004 1.77 1.41
0.090000004 1.77 1.4299999
0.090000004 1.77 1.45
0.090000004 1.77 2.0899999
0.090000004 1.77 2.1099999
0.090000004 1.77 2.1300001
0.090000004 1.79 0.20999999
0.090000004 1.79 0.79000002
0.090000004 1.79 0.81
0.090000004 1.79 0.82999998
0.090000004 1.79 0.85000002
0.090000004 1.79 1.3099999
0.090000004 1.79 1.33
0.090000004 1.79 1.35
0.090000004 1.79 1.37
0.090000004 1.79 1.39
0.090000004 1.79 1.41
0.090000004 1.79 1.4299999
0.090000004 1.79 1.45
0.090000004 1.79 2.0899999
0.090000004 1.79 2.1099999
0.090000004 1.79 2.1300001
0.090000004 1.8099999 0.20999999
0.090000004 1.8099999 0.79000002
0.090000004 1.8099999 0.81
0.090000004 1.8099999 0.82999998
0.090000004 1.8099999 0.85000002
0.090000004 1.8099999 0.87
0.090000004 1.8099999 1.3099999
0.090000004 1.8099999 1.33
0.090000004 1.8099999 1.35
0.090000004 1.8099999 1.37
0.090000004 1.8099999 1.39
0.090000004 1.8099999 1.41
0.090000004 1.8099999 1.4299999
0.090000004 1.8099999 1.45
0.090000004 1.8099999 2.0899999
0.090000004 1.8099999 2.1099999
0.090000004 1.8099999 2.1300001
0.090000004 1.83 0.20999999
0.090000004 1.83 0.79000002
0.090000004 1.83 0.81
0.090000004 1.83 0.82999998
0.090000004 1.83 0.85000002
0.090000004 1.83 0.87
0.090000004 1.83 0.88999999
0.090000004 1.83 1.3099999
0.090000004 1.83 1.33
0.090000004 1.83 1.35
0.090000004 1.83 1.37
0.090000004 1.83 1.39
0.090000004 1.83 1.41
0.090000004 1.83 1.4299999
0.090000004 1.83 1.45
0.090000004 1.83 2.0899999
0.090000004 1.83 2.1099999
0.090000004 1.83 2.1300001
0.090000004 1.85 0.20999999
0.090000004 1.85 0.79000002
0.090000004 1.85 0.81
0.090000004 1.85 0.82999998
0.090000004 1.85 0.85000002
0.090000004 1.85 0.87
0.090000004 1.85 0.88999999
0.090000004 1.85 1.3099999
0.090000004 1.85 1.33
0.090000004 1.85 1.35
0.090000004 1.85 1.37
0.090000004 1.85 1.39
0.090000004 1.85 1.41
0.090000004 1.85 1.4299999
0.090000004 1.85 1.45
0.090000004 1.85 2.0899999
0.090000004 1.85 2.1099999
0.090000004 1.85 2.1300001
0.090000004 1.87 0.20999999
0.090000004 1.87 0.81
0.090000004 1.87 0.82999998
0.090000004 1.87 0.85000002
0.090000004 1.87 0.87
0.090000004 1.87 0.88999999
0.090000004 1.87 1.3099999
0.090000004 1.87 1.33
0.090000004 1.87 1.35
0.090000004 1.87 1.37
0.090000004 1.87 1.39
0.090000004 1.87 1.41
0.090000004 1.87 1.4299999
0.090000004 1.87 1.45
0.090000004 1.87 2.0899999
0.090000004 1.87 2.1099999
0.090000004 1.87 2.1300001
0.090000004 1.89 0.20999999
0.090000004 1.89 0.81
0.090000004 1.89 0.82999998
0.090000004 1.89 0.85000002
0.090000004 1.89 0.87
0.090000004 1.89 0.88999999
0.090000004 1.89 1.3099999
0.090000004 1.89 1.33
0.090000004 1.89 1.35
0.090000004 1.89 1.37
0.090000004 1.89 1.39
0.090000004 1.89 1.41
0.090000004 1.89 1.4299999
0.090000004 1.89 1.45
0.090000004 1.89 2.0899999
0.090000004 1.89 2.1099999
0.090000004 1.89 2.1300001
0.090000004 1.91 0.20999999
0.090000004 1.91 0.81
0.090000004 1.91 0.82999998
0.090000004 1.91 0.85000002
0.090000004 1.91 0.87
0.090000004 1.91 0.88999999
0.090000004 1.91 1.3099999
0.090000004 1.91 1.33
0.090000004 1.91 1.35
0.090000004 1.91 1.37
0.090000004 1.91 1.39
0.090000004 1.91 1.41
0.090000004 1.91 1.4299999
0.090000004 1.91 1.45
0.090000004 1.91 2.0699999
0.090000004 1.91 2.0899999
0.090000004 1.91 2.1099999
0.090000004 1.91 2.1300001
0.090000004 1.9299999 0.20999999
0.090000004 1.9299999 0.81
0.090000004 1.9299999 0.82999998
0.090000004 1.9299999 0.85000002
0.090000004 1.9299999 0.87
0.090000004 1.9299999 0.88999999
0.090000004 1.9299999 1.3099999
0.090000004 1.9299999 1.33
0.090000004 1.9299999 1.35
0.090000004 1.9299999 1.37
0.090000004 1.9299999 1.39
0.090000004 1.9299999 1.41
0.090000004 1.9299999 1.4299999
0.090000004 1.9299999 1.45
0.090000004 1.9299999 2.0699999
0.090000004 1.9299999 2.0899999
0.090000004 1.9299999 2.1099999
0.090000004 1.9299999 2.1300001
0.090000004 1.95 0.20999999
0.090000004 1.95 0.81
0.090000004 1.95 0.82999998
0.090000004 1.95 0.85000002
0.090000004 1.95 0.87
0.090000004 1.95 0.88999999
0.090000004 1.95 1.3099999
0.090000004 1.95 1.33
0.090000004 1.95 1.35
0.090000004 1.95 1.37
0.090000004 1.95 1.39
0.090000004 1.95 1.41
0.090000004 1.95 1.4299999
0.090000004 1.95 1.45
0.090000004 1.95 2.0699999
0.090000004 1.95 2.0899999
0.090000004 1.95 2.1099999
0.090000004 1.95 2.1300001
0.090000004 1.97 0.20999999
0.090000004 1.97 0.82999998
0.090000004 1.97 0.85000002
0.090000004 1.97 0.87
0.090000004 1.97 0.88999999
0.090000004 1.97 1.3099999
0.090000004 1.97 1.33
0.090000004 1.97 1.35
0.090000004 1.97 1.37
0.090000004 1.97 1.39
0.090000004 1.97 1.41
0.090000004 1.97 1.4299999
0.090000004 1.97 1.45
0.090000004 1.97 2.0699999
0.090000004 1.97 2.0899999
0.090000004 1.97 2.1099999
0.090000004 1.97 2.1300001
0.090000004 1.99 0.20999999
0.090000004 1.99 0.82999998
0.090000004 1.99 0.85000002
0.090000004 1.99 1.3099999
0.090000004 1.99 1.33
0.090000004 1.99 1.35
0.090000004 1.99 1.37
0.090000004 1.99 1.39
0.090000004 1.99 1.41
0.090000004 1.99 1.4299999
0.090000004 1.99 1.45
0.090000004 1.99 2.0699999
0.090000004 1.99 2.0899999
0.090000004 1.99 2.1099999
0.090000004 1.99 2.1300001
0.090000004 2.01 0.20999999
0.090000004 2.01 1.3099999
0.090000004 2.01 1.33
0.090000004 2.01 1.35
0.090000004 2.01 1.37
0.090000004 2.01 1.39
0.090000004 2.01 1.41
0.090000004 2.01 1.4299999
0.090000004 2.01 1.45
0.090000004 2.01 2.0699999
0.090000004 2.01 2.0899999
0.090000004 2.01 2.1099999
0.090000004 2.01 2.1300001
0.090000004 2.03 0.20999999
0.090000004 2.03 1.3099999
0.090000004 2.03 1.33
0.090000004 2.03 1.35
0.090000004 2.03 1.37
0.090000004 2.03 1.39
0.090000004 2.03 1.41
0.090000004 2.03 1.4299999
0.090000004 2.03 1.45
0.090000004 2.03 2.0699999
0.090000004 2.03 2.0899999
0.090000004 2.03 2.1099999
0.090000004 2.03 2.1300001
0.090000004 2.05 0.20999999
0.090000004 2.05 1.3099999
0.090000004 2.05 1.33
0.090000004 2.05 1.35
0.090000004 2.05 1.37
0.090000004 2.05 1.39
0.090000004 2.05 1.41
0.090000004 2.05 1.4299999
0.090000004 2.05 1.45
0.090000004 2.05 2.0699999
0.090000004 2.05 2.0899999
0.090000004 2.05 2.1099999
0.090000004 2.05 2.1300001
0.090000004 2.0699999 0.87
0.090000004 2.0699999 0.88999999
0.090000004 2.0699999 1.3099999
0.090000004 2.0699999 1.33
0.090000004 2.0699999 1.35
0.090000004 2.0699999 1.37
0.090000004 2.0699999 1.39
0.090000004 2.0699999 1.41
0.090000004 2.0699999 1.4299999
0.090000004 2.0699999 1.45
0.090000004 2.0699999 2.0699999
0.090000004 2.0699999 2.0899999
0.090000004 2.0699999 2.1099999
0.090000004 2.0699999 2.1300001
0.090000004 2.0899999 0.20999999
0.090000004 2.0899999 0.23
0.090000004 2.0899999 0.25
0.090000004 2.0899999 0.27000001
0.090000004 2.0899999 0.28999999
0.090000004 2.0899999 0.31
0.090000004 2.0899999 0.33000001
0.090000004 2.0899999 0.34999999
0.090000004 2.0899999 0.37
0.090000004 2.0899999 0.38999999
0.090000004 2.0899999 0.41
0.090000004 2.0899999 0.43000001
0.090000004 2.0899999 0.44999999
0.090000004 2.0899999 0.47
0.090000004 2.0899999 0.49000001
0.090000004 2.0899999 0.50999999
0.090000004 2.0899999 0.52999997
0.090000004 2.0899999 0.55000001
0.090000004 2.0899999 0.56999999
0.090000004 2.0899999 0.58999997
0.090000004 2.0899999 0.61000001
0.090000004 2.0899999 0.63
0.090000004 2.0899999 0.64999998
0.090000004 2.0899999 0.67000002
0.090000004 2.0899999 0.69
0.090000004 2.0899999 0.70999998
0.090000004 2.0899999 0.73000002
0.090000004 2.0899999 0.75
0.090000004 2.0899999 0.76999998
0.090000004 2.0899999 0.79000002
0.090000004 2.0899999 0.81
0.090000004 2.0899999 0.82999998
0.090000004 2.0899999 0.85000002
0.090000004 2.0899999 1.3099999
0.090000004 2.0899999 1.33
0.090000004 2.0899999 1.35
0.090000004 2.0899999 1.37
0.090000004 2.0899999 1.39
0.090000004 2.0899999 1.41
0.090000004 2.0899999 1.4299999
0.090000004 2.0899999 1.45
0.090000004 2.1099999 1.3099999
0.090000004 2.1099999 1.33
0.090000004 2.1099999 1.35
0.090000004 2.1099999 1.37
0.090000004 2.1099999 1.39
0.090000004 2.1099999 1.41
0.090000004 2.1099999 1.4299999
0.090000004 2.1099999 1.45
0.090000004 2.1099999 1.47
0.090000004 2.1099999 1.49
0.090000004 2.1099999 1.51
0.090000004 2.1099999 1.53
0.090000004 2.1099999 1.55
0.090000004 2.1099999 1.5700001
0.090000004 2.1099999 1.59
0.090000004 2.1099999 1.61
0.090000004 2.1099999 1.63
0.090000004 2.1099999 1.65
0.090000004 2.1099999 1.67
0.090000004 2.1099999 1.6900001
0.090000004 2.1099999 1.71
0.090000004 2.1099999 1.73
0.090000004 2.1099999 1.75
0.090000004 2.1099999 1.77
0.090000004 2.1099999 1.79
0.090000004 2.1099999 1.8099999
0.090000004 2.1099999 1.83
0.090000004 2.1099999 1.85
0.090000004 2.1099999 1.87
0.090000004 2.1099999 1.89
0.090000004 2.1099999 1.91
0.090000004 2.1099999 1.9299999
0.090000004 2.1099999 1.95
0.090000004 2.1099999 1.97
0.090000004 2.1099999 1.99
0.090000004 2.1099999 2.01
0.090000004 2.1099999 2.03
0.090000004 2.1099999 2.05
0.090000004 2.1099999 2.0699999
0.090000004 2.1099999 2.0899999
0.090000004 2.1099999 2.1099999
0.090000004 2.1099999 2.1300001
0.11 -1.95 0.23
0.11 -1.95 0.25
0.11 -1.95 0.27000001
0.11 -1.95 0.28999999
0.11 -1.95 0.31
0.11 -1.95 0.33000001
0.11 -1.95 0.34999999
0.11 -1.95 0.37
0.11 -1.95 0.38999999
0.11 -1.95 0.41
0.11 -1.95 0.43000001
0.11 -1.95 0.44999999
0.11 -1.95 0.47
0.11 -1.95 0.49000001
0.11 -1.95 0.50999999
0.11 -1.95 0.52999997
0.11 -1.95 0.55000001
0.11 -1.95 0.56999999
0.11 -1.95 0.58999997
0.11 -1.95 0.61000001
0.11 -1.95 0.63
0.11 -1.95 0.64999998
0.11 -1.95 0.67000002
0.11 -1.95 0.69
0.11 -1.95 0.70999998
0.11 -1.95 0.73000002
0.11 -1.95 0.75
0.11 -1.91 0.23
0.11 -1.91 0.75
0.11 -1.89 0.23
0.11 -1.89 0.75
0.11 -1.87 0.23
0.11 -1.87 0.75
0.11 -1.85 0.23
0.11 -1.85 0.75
0.11 -1.83 0.23
0.11 -1.83 0.75
0.11 -1.8099999 0.23
0.11 -1.8099999 0.75
0.11 -1.79 0.23
0.11 -1.79 0.75
0.11 -1.77 0.23
0.11 -1.77 0.75
0.11 -1.75 0.23
0.11 -1.75 0.75
0.11 -1.73 0.23
0.11 -1.73 0.75
0.11 -1.71 0.23
0.11 -1.71 0.75
0.11 -1.6900001 0.23
0.11 -1.6900001 0.75
0.11 -1.67 0.23
0.11 -1.67 0.75
0.11 -1.65 0.23
0.11 -1.65 0.75
0.11 -1.63 0.23
0.11 -1.63 0.75
0.11 -1.61 0.23
0.11 -1.61 0.75
0.11 -1.59 0.23
0.11 -1.59 0.75
0.11 -1.5700001 0.23
0.11 -1.5700001 0.75
0.11 -1.55 0.23
0.11 -1.55 0.75
0.11 -1.53 0.23
0.11 -1.53 0.75
0.11 -1.51 0.23
0.11 -1.51 0.75
0.11 -1.49 0.23
0.11 -1.49 0.75
0.11 -1.47 0.23
0.11 -1.47 0.75
0.11 -1.45 0.23
0.11 -1.45 0.75
0.11 -1.4299999 0.23
0.11 -1.4299999 0.75
0.11 -1.41 0.23
0.11 -1.41 0.75
0.11 -1.39 0.23
0.11 -1.39 0.75
0.11 -1.37 0.23
0.11 -1.37 0.75
0.11 -1.35 0.23
0.11 -1.35 0.75
0.11 -1.33 0.23
0.11 -1.33 0.75
0.11 -1.3099999 0.23
0.11 -1.3099999 0.75
0.11 -1.29 0.23
0.11 -1.29 0.75
0.11 -1.27 0.23
0.11 -1.27 0.75
0.11 -1.25 0.23
0.11 -1.25 0.75
0.11 -1.23 0.23
0.11 -1.23 0.25
0.11 -1.23 0.27000001
0.11 -1.23 0.28999999
0.11 -1.23 0.31
0.11 -1.23 0.33000001
0.11 -1.23 0.34999999
0.11 -1.23 0.37
0.11 -1.23 0.38999999
0.11 -1.23 0.41
0.11 -1.23 0.43000001
0.11 -1.23 0.44999999
0.11 -1.23 0.47
0.11 -1.23 0.49000001
0.11 -1.23 0.50999999
0.11 -1.23 0.52999997
0.11 -1.23 0.55000001
0.11 -1.23 0.56999999
0.11 -1.23 0.58999997
0.11 -1.23 0.61000001
0.11 -1.23 0.63
0.11 -1.23 0.64999998
0.11 -1.23 0.67000002
0.11 -1.23 0.69
0.11 -1.23 0.70999998
0.11 -1.23 0.73000002
0.11 1.37 0.23
0.11 1.37 0.25
0.11 1.37 0.27000001
0.11 1.37 0.28999999
0.11 1.37 0.31
0.11 1.37 0.33000001
0.11 1.37 0.34999999
0.11 1.37 0.37
0.11 1.37 0.38999999
0.11 1.37 0.41
0.11 1.37 0.43000001
0.11 1.37 0.44999999
0.11 1.37 0.47
0.11 1.37 0.49000001
0.11 1.37 0.50999999
0.11 1.37 0.52999997
0.11 1.37 0.55000001
0.11 1.37 0.56999999
0.11 1.37 0.58999997
0.11 1.37 0.61000001
0.11 1.37 0.63
0.11 1.37 0.64999998
0.11 1.37 0.67000002
0.11 1.37 0.69
0.11 1.37 0.70999998
0.11 1.37 0.73000002
0.11 1.37 0.75
0.11 1.37 0.76999998
0.11 1.39 0.23
0.11 1.39 0.79000002
0.11 1.39 0.81
0.11 1.39 0.93000001
0.11 1.39 0.94999999
0.11 1.39 0.97000003
0.11 1.39 0.99000001
0.11 1.39 1.05
0.11 1.39 1.0700001
0.11 1.39 1.09
0.11 1.39 1.11
0.11 1.39 1.13
0.11 1.39 1.15
0.11 1.39 1.17
0.11 1.39 1.1900001
0.11 1.39 1.21
0.11 1.39 1.23
0.11 1.39 1.25
0.11 1.39 1.27
0.11 1.39 1.29
0.11 1.39 1.3099999
0.11 1.39 1.33
0.11 1.39 1.35
0.11 1.39 1.37
0.11 1.39 1.39
0.11 1.39 1.41
0.11 1.39 1.4299999
0.11 1.39 1.45
0.11 1.39 1.47
0.11 1.39 1.49
0.11 1.39 1.51
0.11 1.39 1.53
0.11 1.39 1.55
0.11 1.39 1.5700001
0.11 1.39 1.59
0.11 1.39 1.61
0.11 1.39 1.63
0.11 1.39 1.65
0.11 1.39 1.67
0.11 1.39 1.6900001
0.11 1.39 1.71
0.11 1.39 1.73
0.11 1.39 1.75
0.11 1.39 1.77
0.11 1.39 1.79
0.11 1.39 1.8099999
0.11 1.39 1.83
0.11 1.39 1.85
0.11 1.39 1.87
0.11 1.39 1.89
0.11 1.39 1.91
0.11 1.39 1.9299999
0.11 1.39 1.95
0.11 1.39 1.97
0.11 1.39 1.99
0.11 1.39 2.01
0.11 1.39 2.03
0.11 1.39 2.05
0.11 1.39 2.0699999
0.11 1.39 2.0899999
0.11 1.39 2.1099999
0.11 1.39 2.1300001
0.11 1.41 0.23
0.11 1.41 0.79000002
0.11 1.41 0.81
0.11 1.41 2.1500001
0.11 1.41 2.1700001
0.11 1.4299999 0.23
0.11 1.4299999 0.79000002
0.11 1.4299999 0.81
0.11 1.4299999 0.82999998
0.11 1.4299999 0.91000003
0.11 1.4299999 0.93000001
0.11 1.4299999 0.94999999
0.11 1.4299999 0.97000003
0.11 1.4299999 0.99000001
0.11 1.4299999 1.05
0.11 1.4299999 1.0700001
0.11 1.4299999 1.09
0.11 1.4299999 1.11
0.11 1.4299999 1.13
0.11 1.4299999 1.15
0.11 1.4299999 1.17
0.11 1.4299999 1.1900001
0.11 1.4299999 1.21
0.11 1.4299999 1.23
0.11 1.4299999 1.25
0.11 1.4299999 1.27
0.11 1.4299999 2.1500001
0.11 1.4299999 2.1700001
0.11 1.45 0.23
0.11 1.45 0.81
0.11 1.45 0.82999998
0.11 1.45 0.91000003
0.11 1.45 0.93000001
0.11 1.45 0.94999999
0.11 1.45 0.97000003
0.11 1.45 0.99000001
0.11 1.45 1.05
0.11 1.45 1.0700001
0.11 1.45 1.09
0.11 1.45 1.11
0.11 1.45 1.13
0.11 1.45 1.15
0.11 1.45 1.17
0.11 1.45 1.1900001
0.11 1.45 1.21
0.11 1.45 1.23
0.11 1.45 1.25
0.11 1.45 1.27
0.11 1.45 2.1500001
0.11 1.45 2.1700001
0.11 1.47 0.23
0.11 1.47 0.81
0.11 1.47 0.82999998
0.11 1.47 0.91000003
0.11 1.47 0.93000001
0.11 1.47 0.94999999
0.11 1.47 0.97000003
0.11 1.47 0.99000001
0.11 1.47 1.05
0.11 1.47 1.0700001
0.11 1.47 1.09
0.11 1.47 1.11
0.11 1.47 1.13
0.11 1.47 1.15
0.11 1.47 1.17
0.11 1.47 1.1900001
0.11 1.47 1.21
0.11 1.47 1.23
0.11 1.47 1.25
0.11 1.47 1.27
0.11 1.47 2.1500001
0.11 1.47 2.1700001
0.11 1.49 0.23
0.11 1.49 0.81
0.11 1.49 0.82999998
0.11 1.49 0.91000003
0.11 1.49 0.93000001
0.11 1.49 0.94999999
0.11 1.49 0.97000003
0.11 1.49 0.99000001
0.11 1.49 1.03
0.11 1.49 1.05
0.11 1.49 1.0700001
0.11 1.49 1.09
0.11 1.49 1.11
0.11 1.49 1.13
0.11 1.49 1.15
0.11 1.49 1.17
0.11 1.49 1.1900001
0.11 1.49 1.21
0.11 1.49 1.23
0.11 1.49 1.25
0.11 1.49 1.27
0.11 1.49 2.1500001
0.11 1.49 2.1700001
0.11 1.51 0.23
0.11 1.51 0.81
0.11 1.51 0.82999998
0.11 1.51 0.91000003
0.11 1.51 0.93000001
0.11 1.51 0.94999999
0.11 1.51 0.97000003
0.11 1.51 0.99000001
0.11 1.51 1.03
0.11 1.51 1.05
0.11 1.51 1.0700001
0.11 1.51 1.09
0.11 1.51 1.11
0.11 1.51 1.13
0.11 1.51 1.15
0.11 1.51 1.17
0.11 1.51 1.1900001
0.11 1.51 1.21
0.11 1.51 1.23
0.11 1.51 1.25
0.11 1.51 1.27
0.11 1.51 1.29
0.11 1.51 2.1500001
0.11 1.51 2.1700001
0.11 1.53 0.23
0.11 1.53 0.81
0.11 1.53 0.82999998
0.11 1.53 0.91000003
0.11 1.53 0.93000001
0.11 1.53 0.94999999
0.11 1.53 0.97000003
0.11 1.53 0.99000001
0.11 1.53 1.03
0.11 1.53 1.05
0.11 1.53 1.0700001
0.11 1.53 1.09
0.11 1.53 1.11
0.11 1.53 1.13
0.11 1.53 1.15
0.11 1.53 1.17
0.11 1.53 1.1900001
0.11 1.53 1.21
0.11 1.53 1.23
0.11 1.53 1.25
0.11 1.53 1.27
0.11 1.53 1.29
0.11 1.53 2.1500001
0.11 1.53 2.1700001
0.11 1.55 0.23
0.11 1.55 0.81
0.11 1.55 0.82999998
0.11 1.55 0.91000003
0.11 1.55 0.93000001
0.11 1.55 0.94999999
0.11 1.55 0.97000003
0.11 1.55 0.99000001
0.11 1.55 1.03
0.11 1.55 1.05
0.11 1.55 1.0700001
0.11 1.55 1.09
0.11 1.55 1.11
0.11 1.55 1.13
0.11 1.55 1.15
0.11 1.55 1.17
0.11 1.55 1.1900001
0.11 1.55 1.21
0.11 1.55 1.23
0.11 1.55 1.25
0.11 1.55 1.27
0.11 1.55 1.29
0.11 1.55 2.1500001
0.11 1.55 2.1700001
0.11 1.5700001 0.23
0.11 1.5700001 0.81
0.11 1.5700001 0.82999998
0.11 1.5700001 0.85000002
0.11 1.5700001 0.91000003
0.11 1.5700001 0.93000001
0.11 1.5700001 0.94999999
0.11 1.5700001 0.97000003
0.11 1.5700001 0.99000001
0.11 1.5700001 1.03
0.11 1.5700001 1.05
0.11 1.5700001 1.0700001
0.11 1.5700001 1.09
0.11 1.5700001 1.11
0.11 1.5700001 1.13
0.11 1.5700001 1.15
0.11 1.5700001 1.17
0.11 1.5700001 1.1900001
0.11 1.5700001 1.21
0.11 1.5700001 1.23
0.11 1.5700001 1.25
0.11 1.5700001 1.27
0.11 1.5700001 1.29
0.11 1.5700001 2.1500001
0.11 1.5700001 2.1700001
0.11 1.59 0.23
0.11 1.59 0.81
0.11 1.59 0.82999998
0.11 1.59 0.85000002
0.11 1.59 0.91000003
0.11 1.59 0.93000001
0.11 1.59 0.94999999
0.11 1.59 0.97000003
0.11 1.59 0.99000001
0.11 1.59 1.03
0.11 1.59 1.05
0.11 1.59 1.0700001
0.11 1.59 1.09
0.11 1.59 1.11
0.11 1.59 1.13
0.11 1.59 1.15
0.11 1.59 1.17
0.11 1.59 1.1900001
0.11 1.59 1.21
0.11 1.59 1.23
0.11 1.59 1.25
0.11 1.59 1.27
0.11 1.59 1.29
0.11 1.59 2.1500001
0.11 1.59 2.1700001
0.11 1.61 0.23
0.11 1.61 0.81
0.11 1.61 0.82999998
0.11 1.61 0.85000002
0.11 1.61 0.91000003
0.11 1.61 0.93000001
0.11 1.61 0.94999999
0.11 1.61 0.97000003
0.11 1.61 0.99000001
0.11 1.61 1.03
0.11 1.61 1.05
0.11 1.61 1.0700001
0.11 1.61 1.09
0.11 1.61 1.11
0.11 1.61 1.13
0.11 1.61 1.15
0.11 1.61 1.17
0.11 1.61 1.1900001
0.11 1.61 1.21
0.11 1.61 1.23
0.11 1.61 1.25
0.11 1.61 1.27
0.11 1.61 1.29
0.11 1.61 2.1500001
0.11 1.61 2.1700001
0.11 1.63 0.23
0.11 1.63 0.81
0.11 1.63 0.82999998
0.11 1.63 0.85000002
0.11 1.63 0.87
0.11 1.63 0.91000003
0.11 1.63 0.93000001
0.11 1.63 0.94999999
0.11 1.63 0.97000003
0.11 1.63 0.99000001
0.11 1.63 1.03
0.11 1.63 1.05
0.11 1.63 1.0700001
0.11 1.63 1.09
0.11 1.63 1.11
0.11 1.63 1.13
0.11 1.63 1.15
0.11 1.63 1.17
0.11 1.63 1.1900001
0.11 1.63 1.21
0.11 1.63 1.23
0.11 1.63 1.25
0.11 1.63 1.27
0.11 1.63 1.29
0.11 1.63 2.1500001
0.11 1.63 2.1700001
0.11 1.65 0.23
0.11 1.65 0.82999998
0.11 1.65 0.85000002
0.11 1.65 0.87
0.11 1.65 0.91000003
0.11 1.65 0.93000001
0.11 1.65 0.94999999
0.11 1.65 0.97000003
0.11 1.65 0.99000001
0.11 1.65 1.03
0.11 1.65 1.05
0.11 1.65 1.0700001
0.11 1.65 1.09
0.11 1.65 1.11
0.11 1.65 1.13
0.11 1.65 1.15
0.11 1.65 1.17
0.11 1.65 1.1900001
0.11 1.65 1.21
0.11 1.65 1.23
0.11 1.65 1.25
0.11 1.65 1.27
0.11 1.65 1.29
0.11 1.65 2.1500001
0.11 1.65 2.1700001
0.11 1.67 0.23
0.11 1.67 0.82999998
0.11 1.67 0.85000002
0.11 1.67 0.87
0.11 1.67 0.88999999
0.11 1.67 0.91000003
0.11 1.67 0.93000001
0.11 1.67 0.94999999
0.11 1.67 0.97000003
0.11 1.67 0.99000001
0.11 1.67 1.03
0.11 1.67 1.05
0.11 1.67 1.0700001
0.11 1.67 1.09
0.11 1.67 1.11
0.11 1.67 1.13
0.11 1.67 1.15
0.11 1.67 1.17
0.11 1.67 1.1900001
0.11 1.67 1.21
0.11 1.67 1.23
0.11 1.67 1.25
0.11 1.67 1.27
0.11 1.67 1.29
0.11 1.67 2.1500001
0.11 1.67 2.1700001
0.11 1.6900001 0.23
0.11 1.6900001 0.82999998
0.11 1.6900001 0.85000002
0.11 1.6900001 0.87
0.11 1.6900001 0.88999999
0.11 1.6900001 0.91000003
0.11 1.6900001 0.93000001
0.11 1.6900001 0.94999999
0.11 1.6900001 0.97000003
0.11 1.6900001 0.99000001
0.11 1.6900001 1.03
0.11 1.6900001 1.05
0.11 1.6900001 1.0700001
0.11 1.6900001 1.09
0.11 1.6900001 1.11
0.11 1.6900001 1.13
0.11 1.6900001 1.15
0.11 1.6900001 1.17
0.11 1.6900001 1.1900001
0.11 1.6900001 1.21
0.11 1.6900001 1.23
0.11 1.6900001 1.25
0.11 1.6900001 1.27
0.11 1.6900001 1.29
0.11 1.6900001 2.1500001
0.11 1.6900001 2.1700001
0.11 1.71 0.23
0.11 1.71 0.82999998
0.11 1.71 0.85000002
0.11 1.71 0.87
0.11 1.71 0.88999999
0.11 1.71 0.91000003
0.11 1.71 0.93000001
0.11 1.71 0.94999999
0.11 1.71 0.97000003
0.11 1.71 0.99000001
0.11 1.71 1.03
0.11 1.71 1.05
0.11 1.71 1.0700001
0.11 1.71 1.09
0.11 1.71 1.11
0.11 1.71 1.13
0.11 1.71 1.15
0.11 1.71 1.17
0.11 1.71 1.1900001
0.11 1.71 1.21
0.11 1.71 1.23
0.11 1.71 1.25
0.11 1.71 1.27
0.11 1.71 1.29
0.11 1.71 2.1500001
0.11 1.71 2.1700001
0.11 1.73 0.23
0.11 1.73 0.82999998
0.11 1.73 0.85000002
0.11 1.73 0.87
0.11 1.73 0.88999999
0.11 1.73 0.91000003
0.11 1.73 0.93000001
0.11 1.73 0.94999999
0.11 1.73 0.97000003
0.11 1.73 0.99000001
0.11 1.73 1.03
0.11 1.73 1.05
0.11 1.73 1.0700001
0.11 1.73 1.09
0.11 1.73 1.11
0.11 1.73 1.13
0.11 1.73 1.15
0.11 1.73 1.17
0.11 1.73 1.1900001
0.11 1.73 1.21
0.11 1.73 1.23
0.11 1.73 1.25
0.11 1.73 1.27
0.11 1.73 1.29
0.11 1.73 2.1500001
0.11 1.73 2.1700001
0.11 1.75 0.23
0.11 1.75 0.85000002
0.11 1.75 0.87
0.11 1.75 0.88999999
0.11 1.75 0.91000003
0.11 1.75 0.93000001
0.11 1.75 0.94999999
0.11 1.75 0.97000003
0.11 1.75 0.99000001
0.11 1.75 1.03
0.11 1.75 1.05
0.11 1.75 1.0700001
0.11 1.75 1.09
0.11 1.75 1.11
0.11 1.75 1.13
0.11 1.75 1.15
0.11 1.75 1.17
0.11 1.75 1.1900001
0.11 1.75 1.21
0.11 1.75 1.23
0.11 1.75 1.25
0.11 1.75 1.27
0.11 1.75 1.29
0.11 1.75 2.1300001
0.11 1.75 2.1500001
0.11 1.75 2.1700001
0.11 1.77 0.23
0.11 1.77 0.85000002
0.11 1.77 0.87
0.11 1.77 0.88999999
0.11 1.77 0.91000003
0.11 1.77 0.93000001
0.11 1.77 0.94999999
0.11 1.77 0.97000003
0.11 1.77 0.99000001
0.11 1.77 1.03
0.11 1.77 1.05
0.11 1.77 1.0700001
0.11 1.77 1.09
0.11 1.77 1.11
0.11 1.77 1.13
0.11 1.77 1.15
0.11 1.77 1.17
0.11 1.77 1.1900001
0.11 1.77 1.21
0.11 1.77 1.23
0.11 1.77 1.25
0.11 1.77 1.27
0.11 1.77 1.29
0.11 1.77 2.1300001
0.11 1.77 2.1500001
0.11 1.77 2.1700001
0.11 1.79 0.23
0.11 1.79 0.87
0.11 1.79 0.88999999
0.11 1.79 0.91000003
0.11 1.79 0.93000001
0.11 1.79 0.94999999
0.11 1.79 0.97000003
0.11 1.79 0.99000001
0.11 1.79 1.03
0.11 1.79 1.05
0.11 1.79 1.0700001
0.11 1.79 1.09
0.11 1.79 1.11
0.11 1.79 1.13
0.11 1.79 1.15
0.11 1.79 1.17
0.11 1.79 1.1900001
0.11 1.79 1.21
0.11 1.79 1.23
0.11 1.79 1.25
0.11 1.79 1.27
0.11 1.79 1.29
0.11 1.79 2.1300001
0.11 1.79 2.1500001
0.11 1.79 2.1700001
0.11 1.8099999 0.23
0.11 1.8099999 0.88999999
0.11 1.8099999 0.91000003
0.11 1.8099999 0.93000001
0.11 1.8099999 0.94999999
0.11 1.8099999 0.97000003
0.11 1.8099999 0.99000001
0.11 1.8099999 1.03
0.11 1.8099999 1.05
0.11 1.8099999 1.0700001
0.11 1.8099999 1.09
0.11 1.8099999 1.11
0.11 1.8099999 1.13
0.11 1.8099999 1.15
0.11 1.8099999 1.17
0.11 1.8099999 1.1900001
0.11 1.8099999 1.21
0.11 1.8099999 1.23
0.11 1.8099999 1.25
0.11 1.8099999 1.27
0.11 1.8099999 1.29
0.11 1.8099999 2.1300001
0.11 1.8099999 2.1500001
0.11 1.8099999 2.1700001
0.11 1.83 0.23
0.11 1.83 0.91000003
0.11 1.83 0.93000001
0.11 1.83 0.94999999
0.11 1.83 0.97000003
0.11 1.83 0.99000001
0.11 1.83 1.03
0.11 1.83 1.05
0.11 1.83 1.0700001
0.11 1.83 1.09
0.11 1.83 1.11
0.11 1.83 1.13
0.11 1.83 1.15
0.11 1.83 1.17
0.11 1.83 1.1900001
0.11 1.83 1.21
0.11 1.83 1.23
0.11 1.83 1.25
0.11 1.83 1.27
0.11 1.83 1.29
0.11 1.83 2.1300001
0.11 1.83 2.1500001
0.11 1.83 2.1700001
0.11 1.85 0.23
0.11 1.85 0.91000003
0.11 1.85 0.93000001
0.11 1.85 0.94999999
0.11 1.85 0.97000003
0.11 1.85 0.99000001
0.11 1.85 1.03
0.11 1.85 1.05
0.11 1.85 1.0700001
0.11 1.85 1.09
0.11 1.85 1.11
0.11 1.85 1.13
0.11 1.85 1.15
0.11 1.85 1.17
0.11 1.85 1.1900001
0.11 1.85 1.21
0.11 1.85 1.23
0.11 1.85 1.25
0.11 1.85 1.27
0.11 1.85 1.29
0.11 1.85 2.1300001
0.11 1.85 2.1500001
0.11 1.85 2.1700001
0.11 1.87 0.23
0.11 1.87 0.91000003
0.11 1.87 0.93000001
0.11 1.87 0.94999999
0.11 1.87 0.97000003
0.11 1.87 0.99000001
0.11 1.87 1.03
0.11 1.87 1.05
0.11 1.87 1.0700001
0.11 1.87 1.09
0.11 1.87 1.11
0.11 1.87 1.13
0.11 1.87 1.15
0.11 1.87 1.17
0.11 1.87 1.1900001
0.11 1.87 1.21
0.11 1.87 1.23
0.11 1.87 1.25
0.11 1.87 1.27
0.11 1.87 1.29
0.11 1.87 2.1300001
0.11 1.87 2.1500001
0.11 1.87 2.1700001
0.11 1.89 0.23
0.11 1.89 0.91000003
0.11 1.89 0.93000001
0.11 1.89 0.94999999
0.11 1.89 0.97000003
0.11 1.89 0.99000001
0.11 1.89 1.03
0.11 1.89 1.05
0.11 1.89 1.0700001
0.11 1.89 1.09
0.11 1.89 1.11
0.11 1.89 1.13
0.11 1.89 1.15
0.11 1.89 1.17
0.11 1.89 1.1900001
0.11 1.89 1.21
0.11 1.89 1.23
0.11 1.89 1.25
0.11 1.89 1.27
0.11 1.89 1.29
0.11 1.89 2.1300001
0.11 1.89 2.1500001
0.11 1.89 2.1700001
0.11 1.91 0.23
0.11 1.91 0.91000003
0.11 1.91 0.93000001
0.11 1.91 0.94999999
0.11 1.91 0.97000003
0.11 1.91 0.99000001
0.11 1.91 1.05
0.11 1.91 1.0700001
0.11 1.91 1.09
0.11 1.91 1.11
0.11 1.91 1.13
0.11 1.91 1.15
0.11 1.91 1.17
0.11 1.91 1.1900001
0.11 1.91 1.21
0.11 1.91 1.23
0.11 1.91 1.25
0.11 1.91 1.27
0.11 1.91 1.29
0.11 1.91 2.1300001
0.11 1.91 2.1500001
0.11 1.91 2.1700001
0.11 1.9299999 0.23
0.11 1.9299999 0.91000003
0.11 1.9299999 0.93000001
0.11 1.9299999 0.94999999
0.11 1.9299999 0.97000003
0.11 1.9299999 0.99000001
0.11 1.9299999 1.05
0.11 1.9299999 1.0700001
0.11 1.9299999 1.09
0.11 1.9299999 1.11
0.11 1.9299999 1.13
0.11 1.9299999 1.15
0.11 1.9299999 1.17
0.11 1.9299999 1.1900001
0.11 1.9299999 1.21
0.11 1.9299999 1.23
0.11 1.9299999 1.25
0.11 1.9299999 1.27
0.11 1.9299999 1.29
0.11 1.9299999 2.1300001
0.11 1.9299999 2.1500001
0.11 1.9299999 2.1700001
0.11 1.95 0.23
0.11 1.95 0.91000003
0.11 1.95 0.93000001
0.11 1.95 0.94999999
0.11 1.95 0.97000003
0.11 1.95 0.99000001
0.11 1.95 1.05
0.11 1.95 1.0700001
0.11 1.95 1.09
0.11 1.95 1.11
0.11 1.95 1.13
0.11 1.95 1.15
0.11 1.95 1.17
0.11 1.95 1.1900001
0.11 1.95 1.21
0.11 1.95 1.23
0.11 1.95 1.25
0.11 1.95 1.27
0.11 1.95 1.29
0.11 1.95 2.1300001
0.11 1.95 2.1500001
0.11 1.95 2.1700001
0.11 1.97 0.23
0.11 1.97 0.91000003
0.11 1.97 0.93000001
0.11 1.97 0.94999999
0.11 1.97 0.97000003
0.11 1.97 0.99000001
0.11 1.97 1.05
0.11 1.97 1.0700001
0.11 1.97 1.09
0.11 1.97 1.11
0.11 1.97 1.13
0.11 1.97 1.15
0.11 1.97 1.17
0.11 1.97 1.1900001
0.11 1.97 1.21
0.11 1.97 1.23
0.11 1.97 1.25
0.11 1.97 1.27
0.11 1.97 1.29
0.11 1.97 2.1300001
0.11 1.97 2.1500001
0.11 1.97 2.1700001
0.11 1.99 0.23
0.11 1.99 0.91000003
0.11 1.99 0.93000001
0.11 1.99 0.94999999
0.11 1.99 0.97000003
0.11 1.99 0.99000001
0.11 1.99 1.05
0.11 1.99 1.0700001
0.11 1.99 1.09
0.11 1.99 1.11
0.11 1.99 1.13
0.11 1.99 1.15
0.11 1.99 1.17
0.11 1.99 1.1900001
0.11 1.99 1.21
0.11 1.99 1.23
0.11 1.99 1.25
0.11 1.99 1.27
0.11 1.99 1.29
0.11 1.99 2.1300001
0.11 1.99 2.1500001
0.11 1.99 2.1700001
0.11 2.01 0.23
0.11 2.01 0.91000003
0.11 2.01 0.93000001
0.11 2.01 0.94999999
0.11 2.01 0.97000003
0.11 2.01 0.99000001
0.11 2.01 1.05
0.11 2.01 1.0700001
0.11 2.01 1.09
0.11 2.01 1.11
0.11 2.01 1.13
0.11 2.01 1.15
0.11 2.01 1.17
0.11 2.01 1.1900001
0.11 2.01 1.21
0.11 2.01 1.23
0.11 2.01 1.25
0.11 2.01 1.27
0.11 2.01 1.29
0.11 2.01 2.1300001
0.11 2.01 2.1500001
0.11 2.01 2.1700001
0.11 2.03 0.23
0.11 2.03 0.91000003
0.11 2.03 0.93000001
0.11 2.03 0.94999999
0.11 2.03 0.97000003
0.11 2.03 0.99000001
0.11 2.03 1.05
0.11 2.03 1.0700001
0.11 2.03 1.09
0.11 2.03 1.11
0.11 2.03 1.13
0.11 2.03 1.15
0.11 2.03 1.17
0.11 2.03 1.1900001
0.11 2.03 1.21
0.11 2.03 1.23
0.11 2.03 1.25
0.11 2.03 1.27
0.11 2.03 1.29
0.11 2.03 2.1300001
0.11 2.03 2.1500001
0.11 2.03 2.1700001
0.11 2.05 0.23
0.11 2.05 0.91000003
0.11 2.05 0.93000001
0.11 2.05 0.94999999
0.11 2.05 0.97000003
0.11 2.05 0.99000001
0.11 2.05 1.05
0.11 2.05 1.0700001
0.11 2.05 1.09
0.11 2.05 1.11
0.11 2.05 1.13
0.11 2.05 1.15
0.11 2.05 1.17
0.11 2.05 1.1900001
0.11 2.05 1.21
0.11 2.05 1.23
0.11 2.05 1.25
0.11 2.05 1.27
0.11 2.05 1.29
0.11 2.05 2.1300001
0.11 2.05 2.1500001
0.11 2.05 2.1700001
0.11 2.0699999 0.87
0.11 2.0699999 0.88999999
0.11 2.0699999 0.91000003
0.11 2.0699999 0.93000001
0.11 2.0699999 0.94999999
0.11 2.0699999 0.97000003
0.11 2.0699999 0.99000001
0.11 2.0699999 1.05
0.11 2.0699999 1.0700001
0.11 2.0699999 1.09
0.11 2.0699999 1.11
0.11 2.0699999 1.13
0.11 2.0699999 1.15
0.11 2.0699999 1.17
0.11 2.0699999 1.1900001
0.11 2.0699999 1.21
0.11 2.0699999 1.23
0.11 2.0699999 1.25
0.11 2.0699999 1.27
0.11 2.0699999 1.29
0.11 2.0699999 2.1300001
0.11 2.0699999 2.1500001
0.11 2.0699999 2.1700001
0.11 2.0899999 0.23
0.11 2.0899999 0.25
0.11 2.0899999 0.27000001
0.11 2.0899999 0.28999999
0.11 2.0899999 0.31
0.11 2.0899999 0.33000001
0.11 2.0899999 0.34999999
0.11 2.0899999 0.37
0.11 2.0899999 0.38999999
0.11 2.0899999 0.41
0.11 2.0899999 0.43000001
0.11 2.0899999 0.44999999
0.11 2.0899999 0.47
0.11 2.0899999 0.49000001
0.11 2.0899999 0.50999999
0.11 2.0899999 0.52999997
0.11 2.0899999 0.55000001
0.11 2.0899999 0.56999999
0.11 2.0899999 0.58999997
0.11 2.0899999 0.61000001
0.11 2.0899999 0.63
0.11 2.0899999 0.64999998
0.11 2.0899999 0.67000002
0.11 2.0899999 0.69
0.11 2.0899999 0.70999998
0.11 2.0899999 0.73000002
0.11 2.0899999 0.75
0.11 2.0899999 0.76999998
0.11 2.0899999 0.79000002
0.11 2.0899999 0.81
0.11 2.0899999 0.82999998
0.11 2.0899999 0.85000002
0.11 2.0899999 0.91000003
0.11 2.0899999 0.93000001
0.11 2.0899999 0.94999999
0.11 2.0899999 0.97000003
0.11 2.0899999 0.99000001
0.11 2.0899999 1.05
0.11 2.0899999 1.0700001
0.11 2.0899999 1.09
0.11 2.0899999 1.11
0.11 2.0899999 1.13
